ply
format ascii 1.0
element vertex 717
property float x
property float y
property float z
end_header
0.0224148668348789215 0.368519991636276245 -0.0555689781904220581
0.0103079266846179962 -0.308746546506881714 -0.0555223599076271057
0.0113129997625946999 0.310580968856811523 -0.0553941838443279266
-0.128379002213478088 -0.0919260680675506592 -0.055288359522819519
-0.128379002213478088 -0.228710576891899109 -0.0549272112548351288
0.0422075428068637848 0.343152999877929688 -0.0540011487901210785
-0.080483168363571167 0.367519855499267578 -0.053907494992017746
0.0103133004158735275 0.00689582992345094681 -0.0537604503333568573
-0.128379002213478088 -0.0682369917631149292 -0.0535997785627841949
-0.0735691115260124207 0.367594271898269653 -0.0525751076638698578
-0.0545900985598564148 0.368473351001739502 -0.0523274354636669159
-0.128379002213478088 0.0694889724254608154 -0.0521639250218868256
0.0126215396448969841 0.324813723564147949 -0.0520486161112785339
0.0113129997625946999 0.265335112810134888 -0.0511058531701564789
0.119859889149665833 0.339896947145462036 -0.0508469268679618835
-0.128379002213478088 -0.209496140480041504 -0.0508091412484645844
-0.128340750932693481 0.356608033180236816 -0.0507138408720493317
-0.128379002213478088 0.0156297385692596436 -0.0504583939909934998
0.0386625528335571289 -0.36782875657081604 -0.0502806045114994049
0.0103133004158735275 0.0275367964059114456 -0.0491196848452091217
0.0103133004158735275 -0.27500566840171814 -0.0481640957295894623
0.100581534206867218 -0.346052795648574829 -0.0457514077425003052
0.0056555597111582756 0.368519991636276245 -0.0453206263482570648
-0.128159970045089722 -0.35946306586265564 -0.0447074957191944122
0.0113129997625946999 0.288493573665618896 -0.0442893318831920624
0.0103133004158735275 -0.28506132960319519 -0.0441895276308059692
-0.128379002213478088 0.0266268700361251831 -0.0438982322812080383
0.0420418791472911835 0.341454356908798218 -0.043884769082069397
-0.128379002213478088 0.302770376205444336 -0.0435175895690917969
-0.107959933578968048 -0.368521004915237427 -0.0428233444690704346
0.0103133004158735275 -0.0316774137318134308 -0.0425150096416473389
-0.128379002213478088 0.202254354953765869 -0.0422946177423000336
0.101599469780921936 0.353697687387466431 -0.0422296375036239624
-0.037830844521522522 -0.368521004915237427 -0.0422131158411502838
0.0103132687509059906 0.136056751012802124 -0.0421553179621696472
-0.128379002213478088 0.0519319102168083191 -0.0420137159526348114
0.0113129997625946999 0.308726131916046143 -0.0415890216827392578
0.11967131495475769 -0.342770159244537354 -0.0413785427808761597
-0.128379002213478088 0.265776962041854858 -0.0409471504390239716
-0.0391120575368404388 -0.368521004915237427 -0.0408060736954212189
-0.128379002213478088 0.0762892812490463257 -0.0406713820993900299
0.121741719543933868 0.344891458749771118 -0.0404852963984012604
0.015487263910472393 0.330086588859558105 -0.0400555171072483063
0.117858909070491791 0.35374566912651062 -0.039991423487663269
-0.123036563396453857 -0.367544680833816528 -0.0393651798367500305
0.0103133004158735275 0.115990988910198212 -0.0392295084893703461
0.0103133004158735275 -0.0565962977707386017 -0.0392011329531669617
0.09784650057554245 0.348628759384155273 -0.0386579185724258423
-0.124269425868988037 0.366557568311691284 -0.0380310565233230591
0.0103133004158735275 0.130975276231765747 -0.0379429943859577179
-0.128379002213478088 -0.346733719110488892 -0.0372642725706100464
0.110855206847190857 0.336736530065536499 -0.0365942753851413727
-0.128379002213478088 -0.142123386263847351 -0.035259738564491272
-0.128379002213478088 0.139798581600189209 -0.0352504923939704895
0.0113129997625946999 0.294816732406616211 -0.0349976345896720886
0.0205026231706142426 0.368519991636276245 -0.0344051830470561981
0.0113129997625946999 0.272336810827255249 -0.0338686481118202209
0.103213474154472351 0.353992998600006104 -0.0338346809148788452
-0.128365740180015564 -0.352145582437515259 -0.0336448848247528076
-0.110789544880390167 -0.368521004915237427 -0.0319426059722900391
-0.128379002213478088 0.19031958281993866 -0.0316474922001361847
-0.128379002213478088 0.278848797082901001 -0.031406547874212265
0.0103122014552354813 -0.188855975866317749 -0.0312117226421833038
0.0103120170533657074 0.0501195862889289856 -0.031190037727355957
-0.0714121833443641663 -0.368521004915237427 -0.030898338183760643
0.109078601002693176 -0.333259493112564087 -0.0300941206514835358
0.0113112740218639374 0.280823498964309692 -0.0298903360962867737
0.0103090107440948486 -0.250255972146987915 -0.0276559833437204361
0.0294026397168636322 -0.332111179828643799 -0.0276451148092746735
0.118466436862945557 -0.346351414918899536 -0.0268559902906417847
-0.128379002213478088 -0.253295868635177612 -0.0265583880245685577
0.0103078633546829224 -0.276485085487365723 -0.0263063143938779831
-0.128379002213478088 0.0402608886361122131 -0.026284877210855484
0.0103085460141301155 -0.0797154977917671204 -0.0262680388987064362
0.0108619304373860359 0.24109300971031189 -0.0258679389953613281
-0.128379002213478088 -0.193371504545211792 -0.0248473677784204483
0.0419427715241909027 -0.363840311765670776 -0.0239305254071950912
0.0104953097179532051 0.0859027653932571411 -0.0237340740859508514
-0.128379002213478088 -0.23882940411567688 -0.0235519465059041977
0.0115573033690452576 0.316873431205749512 -0.0232096277177333832
-0.128379002213478088 -0.0425281673669815063 -0.0220632236450910568
-0.128379002213478088 0.244299650192260742 -0.0213638916611671448
0.0115887140855193138 0.252040266990661621 -0.0211273003369569778
-0.128379002213478088 0.177534922957420349 -0.0203833077102899551
-0.128379002213478088 0.301102757453918457 -0.0203787591308355331
0.0114890504628419876 -0.149018615484237671 -0.0190255045890808105
0.107310660183429718 0.336689352989196777 -0.0189378168433904648
0.0116657251492142677 -0.109689056873321533 -0.0181947480887174606
0.121916234493255615 0.350539952516555786 -0.0178509335964918137
0.0118076074868440628 0.206397637724876404 -0.0178099051117897034
-0.128379002213478088 -0.182328775525093079 -0.017666056752204895
0.011867583729326725 0.00850642658770084381 -0.0175439771264791489
-0.128379002213478088 0.142237454652786255 -0.0174720212817192078
-0.128379002213478088 -0.31378781795501709 -0.0173073261976242065
0.104938283562660217 -0.350110471248626709 -0.0169664323329925537
-0.128379002213478088 0.345135152339935303 -0.0167442634701728821
0.0121763385832309723 0.160491302609443665 -0.0161477942019701004
0.0149850258603692055 0.328679174184799194 -0.0161156747490167618
-0.128325402736663818 0.358572334051132202 -0.0155985932797193527
0.016560729593038559 -0.32499462366104126 -0.0151382694020867348
0.0125829530879855156 -0.00152634817641228437 -0.0144517915323376656
0.0129011943936347961 -0.0385996326804161072 -0.0138347232714295387
0.0137780057266354561 0.0262219104915857315 -0.0128971515223383904
-0.0923720225691795349 -0.368521004915237427 -0.0121205952018499374
0.0286164805293083191 -0.32948186993598938 -0.0120959244668483734
0.014680071733891964 0.196798726916313171 -0.0115674212574958801
0.0998240038752555847 -0.330933570861816406 -0.0113360891118645668
-0.128379002213478088 -0.243664994835853577 -0.0106380358338356018
0.0154128465801477432 0.102006055414676666 -0.0104872435331344604
0.116500921547412872 -0.35184788703918457 -0.0102335289120674133
0.0158198755234479904 -0.249189943075180054 -0.00988724548369646072
0.0166578944772481918 0.275331646203994751 -0.00914304796606302261
-0.0762417912483215332 -0.368521004915237427 -0.00910839904099702835
0.104646079242229462 0.3327522873878479 -0.00899947434663772583
0.0165690537542104721 -0.100517347455024719 -0.00840932689607143402
-0.128379002213478088 0.23333422839641571 -0.0084083927795290947
-0.128379002213478088 -0.310651957988739014 -0.00828637741506099701
-0.128379002213478088 0.0790675058960914612 -0.00790053792297840118
0.121528290212154388 0.338813483715057373 -0.00786741543561220169
-0.128379002213478088 0.117365136742591858 -0.00750770978629589081
0.0178435817360877991 -0.0119720501825213432 -0.00712385540828108788
0.0946611911058425903 -0.335337072610855103 -0.00708899600431323051
0.0187537074089050293 -0.220590189099311829 -0.00694299954921007156
-0.128379002213478088 0.293572783470153809 -0.00692281918600201607
0.102302014827728271 -0.355279654264450073 -0.00573255633935332298
-0.128379002213478088 0.0847211331129074097 -0.00562512781471014023
0.0891975685954093933 0.338703721761703491 -0.00512875942513346672
0.0238914042711257935 0.323339879512786865 -0.00487475423142313957
0.0867547169327735901 0.334926038980484009 -0.00460827024653553963
0.0231418553739786148 0.0242340583354234695 -0.00440145749598741531
0.0237561091780662537 0.216887861490249634 -0.00404569599777460098
0.0239698514342308044 0.0200879424810409546 -0.00392112880945205688
0.081938132643699646 0.320819497108459473 -0.00356467231176793575
0.0334800705313682556 -0.239605247974395752 -0.00354934902861714363
0.0673321187496185303 -0.334531158208847046 -0.00354934763163328171
0.0362394638359546661 0.179036527872085571 -0.00354934576898813248
0.0373234525322914124 0.302641719579696655 -0.00354934437200427055
0.100366219878196716 -0.297769844532012939 -0.00354933994822204113
0.0555747561156749725 -0.283677041530609131 -0.00354933994822204113
0.0689429491758346558 -0.279371291399002075 -0.00354933994822204113
0.0973612591624259949 -0.253977090120315552 -0.00354933994822204113
0.0435782000422477722 -0.235363230109214783 -0.00354933994822204113
0.10575084388256073 -0.234062120318412781 -0.00354933994822204113
0.0603103488683700562 -0.209781169891357422 -0.00354933994822204113
0.104489818215370178 -0.204838857054710388 -0.00354933994822204113
0.0632191598415374756 -0.182127594947814941 -0.00354933994822204113
0.0494276024401187897 -0.173856869339942932 -0.00354933994822204113
0.0737090781331062317 -0.115375228226184845 -0.00354933994822204113
0.0485672354698181152 -0.115169964730739594 -0.00354933994822204113
0.0583166703581809998 -0.11407046765089035 -0.00354933994822204113
0.0607144907116889954 -0.0937265455722808838 -0.00354933994822204113
0.0815241411328315735 -0.0895397812128067017 -0.00354933994822204113
0.0920397788286209106 -0.0844854861497879028 -0.00354933994822204113
0.101830117404460907 -0.0701769366860389709 -0.00354933994822204113
0.0415246039628982544 -0.0545479394495487213 -0.00354933994822204113
0.0633797720074653625 -0.0287698600441217422 -0.00354933994822204113
0.0671828985214233398 -0.0242636073380708694 -0.00354933994822204113
0.0722712725400924683 -0.00529378792271018028 -0.00354933994822204113
0.0762002617120742798 -0.00260638631880283356 -0.00354933994822204113
0.0805951431393623352 0.0187110304832458496 -0.00354933994822204113
0.0835362821817398071 0.0434365496039390564 -0.00354933994822204113
0.0898054614663124084 0.0449979007244110107 -0.00354933994822204113
0.106219395995140076 0.0486518405377864838 -0.00354933994822204113
0.0818864032626152039 0.0650656074285507202 -0.00354933994822204113
0.0588204562664031982 0.0667686685919761658 -0.00354933994822204113
0.0457569248974323273 0.0695054158568382263 -0.00354933994822204113
0.0583679564297199249 0.0699478909373283386 -0.00354933994822204113
0.0550185069441795349 0.0758169889450073242 -0.00354933994822204113
0.0576639287173748016 0.153929546475410461 -0.00354933994822204113
0.0525700002908706665 0.165978178381919861 -0.00354933994822204113
0.0668385028839111328 0.178065076470375061 -0.00354933994822204113
0.0682307332754135132 0.189238309860229492 -0.00354933994822204113
0.0536119416356086731 0.201333373785018921 -0.00354933994822204113
0.105182945728302002 0.217936605215072632 -0.00354933994822204113
0.0543608628213405609 0.21995776891708374 -0.00354933994822204113
0.060320291668176651 0.231731370091438293 -0.00354933994822204113
0.105816692113876343 0.260731518268585205 -0.00354933994822204113
0.0946852117776870728 0.28232276439666748 -0.00354933994822204113
0.0472944155335426331 0.289531171321868896 -0.00354933994822204113
0.0896281078457832336 0.292818129062652588 -0.00354933994822204113
0.0580961108207702637 0.294618040323257446 -0.00354933994822204113
0.0511242300271987915 0.313770115375518799 -0.00354933994822204113
0.038279164582490921 -0.182466760277748108 -0.0035492961760610342
0.0369990356266498566 -0.0354253388941287994 -0.00354914460331201553
0.107460461556911469 0.163087263703346252 -0.00354898418299853802
0.0748385339975357056 0.339947640895843506 -0.00354807684198021889
0.110406644642353058 0.232205852866172791 -0.00354805379174649715
0.111528627574443817 -0.0477623380720615387 -0.00354769942350685596
0.111600711941719055 0.0178165137767791748 -0.00354767660610377789
0.111643433570861816 0.215247973799705505 -0.00354766333475708961
0.111964210867881775 -0.257993042469024658 -0.00354756182059645653
0.114756926894187927 0.314602375030517578 -0.00354243512265384197
0.115185730159282684 -0.227923914790153503 -0.00354000460356473923
0.115250878036022186 0.227587118744850159 -0.00353938713669776917
0.0540935695171356201 0.331767499446868896 -0.0035336068831384182
0.0297294743359088898 0.0700315609574317932 -0.00353310024365782738
0.100260034203529358 -0.318413615226745605 -0.00353095773607492447
0.0290516708046197891 0.138145998120307922 -0.00352942012250423431
0.116569824516773224 0.0630350410938262939 -0.00352688506245613098
0.117939397692680359 -0.164104089140892029 -0.00351390289142727852
0.0255885906517505646 -0.252413332462310791 -0.00351061765104532242
0.025539938360452652 -0.195499256253242493 -0.00351024395786225796
-0.0723076686263084412 -0.368521004915237427 -0.00350755383260548115
0.119168087840080261 0.23946380615234375 -0.00350225646980106831
0.119881913065910339 -0.167010277509689331 -0.0034954901784658432
0.120176210999488831 0.0224174987524747849 -0.00349270063452422619
0.120488591492176056 -0.266219645738601685 -0.00348973949439823627
0.120631963014602661 -0.201331973075866699 -0.00348838069476187229
0.0297746863216161728 -0.0952918753027915955 -0.00341568957082927227
0.0644980445504188538 0.348135769367218018 -0.00341351889073848724
0.0291966311633586884 -0.0226657390594482422 -0.00338941626250743866
0.0252127647399902344 -0.104047015309333801 -0.00320834550075232983
0.0647701770067214966 -0.352839469909667969 -0.00309355277568101883
0.122356303036212921 0.045327264815568924 -0.00308232172392308712
0.12271638959646225 -0.102189302444458008 -0.0029757465235888958
0.123993009328842163 -0.309166252613067627 -0.00259552872739732265
0.124416552484035492 0.189470991492271423 -0.00247255363501608372
0.124606132507324219 -0.0348428152501583099 -0.00241644354537129402
-0.0195554792881011963 0.368519991636276245 -0.0020308690145611763
-0.128379002213478088 -0.183477446436882019 -0.00160462618805468082
-0.0975716859102249146 0.367520004510879517 -0.00148356962017714977
0.125429838895797729 -0.0843265429139137268 -0.000897124991752207279
-0.128379002213478088 -0.0653021931648254395 -3.19297905662097037e-05
-0.128379002213478088 -0.0203232355415821075 0.000434440182289108634
-0.128379002213478088 -0.242162272334098816 0.000586334208492189646
0.0897305309772491455 -0.358333796262741089 0.000651485868729650974
0.126110926270484924 0.178309157490730286 0.000706355320289731026
0.125965073704719543 -0.304976671934127808 0.00112135626841336489
0.12627999484539032 0.125239938497543335 0.00118669169023633003
-0.128379002213478088 0.210133954882621765 0.00155206979252398014
-0.128379002213478088 0.0491888187825679779 0.00185896886978298426
-0.102973058819770813 0.367519408464431763 0.00201788637787103653
0.126109957695007324 -0.265110284090042114 0.0020410493016242981
0.126426920294761658 0.150982096791267395 0.00261840713210403919
0.126153841614723206 -0.220604345202445984 0.00286197592504322529
-0.128379002213478088 0.219029322266578674 0.00355262705124914646
0.126415818929672241 0.112489379942417145 0.0037039630115032196
-0.0171375609934329987 -0.368521004915237427 0.00378064229153096676
-0.128379002213478088 0.323900520801544189 0.00384867354296147823
0.0841894969344139099 0.359560161828994751 0.00423718616366386414
-0.0144513621926307678 -0.368521004915237427 0.004370072390884161
0.126065894961357117 0.305744975805282593 0.00516271311789751053
0.126230105757713318 0.286332428455352783 0.00547789642587304115
0.0115695120766758919 -0.368521004915237427 0.00685608386993408203
-0.0514653734862804413 0.367888659238815308 0.00750617310404777527
-0.128379002213478088 0.098187565803527832 0.00754578644409775734
0.122970923781394958 -0.357912570238113403 0.0087932441383600235
-0.128379002213478088 -0.291524171829223633 0.00971496198326349258
0.126029253005981445 -0.313000142574310303 0.0104080047458410263
-0.0783798173069953918 0.367520004510879517 0.010738275945186615
0.126191988587379456 0.0462470091879367828 0.0109285861253738403
-0.128379002213478088 0.332335889339447021 0.0112240538001060486
-0.0713476762175559998 -0.368521004915237427 0.0115418694913387299
-0.0333320349454879761 0.368436962366104126 0.011597110889852047
-0.128379002213478088 -0.229201778769493103 0.0118452459573745728
-0.128379002213478088 0.246178507804870605 0.0122910849750041962
-0.123289965093135834 0.367093771696090698 0.0126329567283391953
0.1266288161277771 0.351499706506729126 0.0133316190913319588
-0.128379002213478088 0.297801762819290161 0.0139894438907504082
0.126114055514335632 -0.197837427258491516 0.0143429730087518692
-0.128379002213478088 -0.215582594275474548 0.0149605348706245422
-0.0174377262592315674 0.368237495422363281 0.0151244131848216057
-0.128379002213478088 -0.130301043391227722 0.0155084552243351936
-0.128379002213478088 0.181208223104476929 0.0155613794922828674
0.125947654247283936 -0.162930727005004883 0.016139226034283638
-0.128379002213478088 -0.0415812171995639801 0.0165523476898670197
-0.128379002213478088 0.262862175703048706 0.0173480864614248276
-0.128379002213478088 0.294597893953323364 0.0175971854478120804
0.125447005033493042 0.183908462524414062 0.0179047621786594391
0.125346124172210693 0.238289237022399902 0.0185414217412471771
-2.80459153145784512e-05 0.368073761463165283 0.0191356223076581955
-0.128379002213478088 0.318300485610961914 0.0191957186907529831
-0.128379002213478088 -0.0957019850611686707 0.0195259582251310349
-0.0186590217053890228 -0.368521004915237427 0.0197513066232204437
0.125147253274917603 0.0857731625437736511 0.0197964832186698914
-0.128379002213478088 -0.351196944713592529 0.0206184443086385727
0.125460132956504822 -0.117250800132751465 0.0206329058855772018
-0.128147616982460022 0.360274553298950195 0.0207532402127981186
-0.128379002213478088 0.173261463642120361 0.0214519519358873367
0.00761614413931965828 -0.368521004915237427 0.0219680313020944595
0.125201061367988586 -0.195080295205116272 0.0220991391688585281
-0.128379002213478088 -0.0239801052957773209 0.0226278826594352722
0.124617300927639008 0.195333242416381836 0.0227804053574800491
-0.128379002213478088 -0.32543182373046875 0.022914402186870575
-0.115632042288780212 0.367862850427627563 0.0231840237975120544
0.124353386461734772 -0.328647494316101074 0.0232214462012052536
0.124511949717998505 0.177596420049667358 0.0233017783612012863
0.126168206334114075 0.353364348411560059 0.0233422908931970596
0.124391220510005951 0.0781198218464851379 0.023896900936961174
-0.128379002213478088 -0.00229982775636017323 0.0245263930410146713
0.124519705772399902 -0.128104791045188904 0.024661606177687645
-0.0238197669386863708 -0.368521004915237427 0.0247700754553079605
0.124484702944755554 -0.241294309496879578 0.0249216388911008835
0.124437816441059113 -0.243892312049865723 0.0249953530728816986
0.0630137994885444641 0.359876841306686401 0.0250634457916021347
-0.123087406158447266 0.367204666137695312 0.0254569537937641144
0.086081385612487793 -0.359174996614456177 0.0259302835911512375
0.0820142552256584167 -0.359174996614456177 0.0260984767228364944
0.123370587825775146 0.0495215579867362976 0.027022823691368103
0.122520163655281067 0.181501716375350952 0.0279282424598932266
-0.128379002213478088 0.253254115581512451 0.0283488687127828598
-0.128379002213478088 0.136182606220245361 0.0286104995757341385
0.121819943189620972 -0.0644407719373703003 0.0287410132586956024
-0.128379002213478088 0.344610750675201416 0.0287481881678104401
0.121406979858875275 0.128911256790161133 0.0291054528206586838
0.121241949498653412 0.118649505078792572 0.0292804837226867676
-0.128379002213478088 0.302426725625991821 0.0295287035405635834
-0.128379002213478088 0.261761933565139771 0.0296759679913520813
-0.128379002213478088 0.03737630695104599 0.0299604311585426331
0.120444610714912415 -0.0298208333551883698 0.0301574170589447021
0.12027084082365036 0.301061928272247314 0.0303318984806537628
-0.0703027695417404175 0.367520004510879517 0.0304279439151287079
0.119914941489696503 0.256572932004928589 0.0304331369698047638
0.119503699243068695 -0.163412764668464661 0.0305096935480833054
0.119224898517131805 0.239261031150817871 0.0305615924298763275
0.11858704686164856 0.27120518684387207 0.0306803341954946518
0.116601221263408661 -0.0923989415168762207 0.0310500115156173706
0.116535723209381104 -0.208971112966537476 0.0310622043907642365
0.114650696516036987 0.163189738988876343 0.031084766611456871
0.0785237699747085571 -0.015505974180996418 0.0310949701815843582
0.0905945897102355957 0.046731904149055481 0.0311134420335292816
0.0796366259455680847 -0.0579898431897163391 0.0311210621148347855
0.0902491360902786255 0.0277947038412094116 0.0311275776475667953
0.105884112417697906 0.158838346600532532 0.0311381835490465164
-0.0542883165180683136 0.367640405893325806 0.0311454702168703079
0.115221075713634491 0.301262259483337402 0.0313069485127925873
0.113533549010753632 -0.266147464513778687 0.0314019247889518738
0.072773568332195282 -0.0113702490925788879 0.0314176790416240692
0.0751924291253089905 0.0633604228496551514 0.0314187891781330109
0.0971569418907165527 0.331156522035598755 0.0314415246248245239
0.11380460113286972 -0.00555985979735851288 0.0314434245228767395
0.112075090408325195 -0.0561715811491012573 0.0314504764974117279
0.0795705467462539673 0.102730371057987213 0.0314540565013885498
0.108260072767734528 -0.13744179904460907 0.0314646512269973755
0.0923426896333694458 -0.0293227490037679672 0.0314717143774032593
0.0941066592931747437 -0.0667096823453903198 0.0314718037843704224
0.0949302464723587036 -0.0406409613788127899 0.031471841037273407
0.0969794690608978271 -0.0680724456906318665 0.0314719416201114655
0.106338143348693848 -0.186463728547096252 0.0314719974994659424
0.106051906943321228 -0.320451259613037109 0.0314720012247562408
0.0870690196752548218 -0.304719805717468262 0.0314720012247562408
0.103954397141933441 -0.255498021841049194 0.0314720012247562408
0.0926017388701438904 -0.252909541130065918 0.0314720012247562408
0.0852416008710861206 -0.225547641515731812 0.0314720012247562408
0.0946847498416900635 -0.218599140644073486 0.0314720012247562408
0.0981927439570426941 -0.190021395683288574 0.0314720012247562408
0.0827937722206115723 -0.138197362422943115 0.0314720012247562408
0.0882346108555793762 -0.105647943913936615 0.0314720012247562408
0.0888025984168052673 0.134046480059623718 0.0314720012247562408
0.0866621509194374084 0.236837834119796753 0.0314720012247562408
0.0879775136709213257 0.249528452754020691 0.0314720012247562408
0.0875618234276771545 0.288738101720809937 0.0314720012247562408
0.073453173041343689 -0.283742815256118774 0.0315626263618469238
0.0714149102568626404 -0.359174996614456177 0.0321570821106433868
0.0706385970115661621 -0.115484096109867096 0.0328550338745117188
0.113031715154647827 -0.359174996614456177 0.0330076999962329865
0.123479694128036499 -0.345369040966033936 0.0330571644008159637
-0.128379002213478088 0.0496148057281970978 0.0330670997500419617
-0.128379002213478088 0.149325892329216003 0.0331861674785614014
-0.128379002213478088 0.106216110289096832 0.0333120264112949371
0.126389890909194946 0.351599603891372681 0.0340176224708557129
0.0773511752486228943 0.341305196285247803 0.0342201888561248779
-0.128379002213478088 0.160089820623397827 0.0344606190919876099
0.0667340308427810669 -0.291141599416732788 0.0347120985388755798
0.0655687227845191956 0.138474434614181519 0.0363218970596790314
0.077107846736907959 0.343856155872344971 0.0370638146996498108
-0.0432144775986671448 0.368091732263565063 0.0373552776873111725
0.0646693408489227295 0.0270575713366270065 0.0375643372535705566
0.0644297674298286438 -0.185934901237487793 0.0376545824110507965
-0.128379002213478088 -0.173961639404296875 0.0377776101231575012
0.0632957518100738525 -0.122279547154903412 0.0391061566770076752
-0.128379002213478088 -0.0711775720119476318 0.0396974831819534302
0.0712391436100006104 0.344896554946899414 0.0401616692543029785
-0.128379002213478088 0.066563822329044342 0.040588773787021637
0.0624954253435134888 0.0549583807587623596 0.0407857038080692291
0.0417396910488605499 -0.365144163370132446 0.0408031940460205078
0.0623502656817436218 0.150413110852241516 0.0415261685848236084
-0.128379002213478088 0.201888144016265869 0.0417797528207302094
-0.128379002213478088 -0.211433157324790955 0.0418351329863071442
0.0642609074711799622 0.230839326977729797 0.0422353185713291168
0.0803905725479125977 0.359901010990142822 0.0422874540090560913
-0.0693213269114494324 -0.368521004915237427 0.0435609295964241028
0.0862810611724853516 -0.359174996614456177 0.0437861084938049316
-0.106408193707466125 -0.368521004915237427 0.0439461357891559601
-0.128379002213478088 0.0868558511137962341 0.0440243370831012726
-0.0527144856750965118 -0.368521004915237427 0.044322676956653595
-0.128379002213478088 0.271399348974227905 0.0448634065687656403
0.12467619776725769 -0.356892436742782593 0.0455018691718578339
0.0614370107650756836 0.0167233441025018692 0.046181853860616684
-0.128379002213478088 -0.261144399642944336 0.0463389232754707336
0.0612313598394393921 0.084033183753490448 0.0472337789833545685
-0.128379002213478088 -0.10512881726026535 0.0473290756344795227
-0.128379002213478088 0.306044340133666992 0.0473301634192466736
-0.034602046012878418 0.368313491344451904 0.0476447753608226776
-0.0404377318918704987 -0.368521004915237427 0.0478867217898368835
0.0605257637798786163 -0.137204781174659729 0.0491071753203868866
0.0606495998799800873 -0.0590215213596820831 0.0493064373731613159
0.0611822418868541718 0.359858483076095581 0.049620993435382843
-0.128375023603439331 -0.351815253496170044 0.0499595925211906433
-0.128379002213478088 0.148798197507858276 0.0502040013670921326
-0.128379002213478088 -0.156702086329460144 0.0503051131963729858
0.0608016513288021088 0.179023787379264832 0.0505075342953205109
0.0653954073786735535 0.233963713049888611 0.0519225671887397766
-0.128379002213478088 0.280085951089859009 0.052097804844379425
0.0605264529585838318 -0.118165463209152222 0.0529922209680080414
0.0665200278162956238 0.237713545560836792 0.054264504462480545
0.120730109512805939 -0.34804573655128479 0.0542838424444198608
-0.128379002213478088 -0.247373655438423157 0.0546154342591762543
0.12309720367193222 0.358368366956710815 0.0546440295875072479
0.0363558530807495117 -0.367584168910980225 0.0553032346069812775
-0.128379002213478088 0.277191758155822754 0.0554249770939350128
0.0209346171468496323 -0.368521004915237427 0.0554776303470134735
0.0605995766818523407 0.123633772134780884 0.0555530674755573273
0.0607540756464004517 -0.0054671228863298893 0.055924002081155777
0.0605296753346920013 -0.07498159259557724 0.0560676120221614838
0.0628725886344909668 0.225822821259498596 0.0561557933688163757
0.027194315567612648 -0.368521004915237427 0.0568121522665023804
-0.0570112504065036774 0.36752927303314209 0.0571279190480709076
-0.128379002213478088 -0.191879481077194214 0.0572743192315101624
0.0605311170220375061 0.0627254843711853027 0.0577211752533912659
0.0605309903621673584 0.156556159257888794 0.0580397807061672211
-0.128379002213478088 0.0869612693786621094 0.0582654625177383423
0.0633527189493179321 -0.338675528764724731 0.0587089136242866516
-0.128379002213478088 -0.297026664018630981 0.0590135902166366577
0.0648369342088699341 -0.243854448199272156 0.0593664050102233887
-0.128379002213478088 -0.188075795769691467 0.0593935251235961914
-0.00414978340268135071 0.367520004510879517 0.0601495765149593353
0.0642526894807815552 0.241877734661102295 0.0604093372821807861
-0.128379002213478088 -0.146896347403526306 0.0606278702616691589
0.0605298653244972229 0.123649716377258301 0.0609028860926628113
0.091636165976524353 -0.359174996614456177 0.0610742382705211639
0.0606945119798183441 -0.0683960393071174622 0.0612538233399391174
0.0641396939754486084 -0.237728804349899292 0.0614129342138767242
0.0605294965207576752 0.207541212439537048 0.0616537965834140778
0.0638052448630332947 0.23200717568397522 0.0616730637848377228
-0.128379002213478088 0.161475896835327148 0.0622916854918003082
0.0607671886682510376 -0.0788756832480430603 0.0630371794104576111
0.0607792846858501434 -0.197264447808265686 0.0633527263998985291
0.0606296323239803314 0.307634890079498291 0.063962399959564209
0.0605286434292793274 0.12971651554107666 0.0640075802803039551
0.0605285465717315674 0.193998754024505615 0.0642515867948532104
0.0605284683406352997 0.0613218657672405243 0.0644577741622924805
0.116425164043903351 0.347993165254592896 0.064518272876739502
-0.128379002213478088 -0.310454457998275757 0.0648131445050239563
-0.128379002213478088 0.181392133235931396 0.0649087503552436829
0.060528244823217392 0.138329461216926575 0.0650261715054512024
-0.128379002213478088 0.08816567063331604 0.0654073208570480347
0.0225276816636323929 -0.368521004915237427 0.0655044913291931152
0.0710754320025444031 -0.359174996614456177 0.0658853277564048767
0.0619041435420513153 0.235660597681999207 0.06643657386302948
-0.0461514517664909363 0.367972195148468018 0.0671637728810310364
-0.128379002213478088 -0.177982598543167114 0.0674319937825202942
0.125767290592193604 -0.353471100330352783 0.0675572827458381653
0.060294371098279953 0.211804836988449097 0.0676957666873931885
0.0602761059999465942 0.311741769313812256 0.0678677037358283997
0.0602044612169265747 0.0502365566790103912 0.0686527639627456665
0.0603873617947101593 -0.19701424241065979 0.0686668381094932556
0.0603456795215606689 -0.103512398898601532 0.0689733326435089111
0.0601417198777198792 0.18920019268989563 0.0691999197006225586
0.0606789402663707733 0.22904515266418457 0.0696641430258750916
0.0600941367447376251 0.182915300130844116 0.069668993353843689
0.0600394159555435181 0.03639192134141922 0.0703161656856536865
0.0954625606536865234 0.347918987274169922 0.0706586539745330811
-0.128379002213478088 0.0582640469074249268 0.0708123892545700073
-0.128379002213478088 0.162241712212562561 0.0708426162600517273
-0.128379002213478088 0.303407728672027588 0.0716554075479507446
0.0598341338336467743 0.0675036832690238953 0.0720599815249443054
0.0583027377724647522 0.359811604022979736 0.0722093656659126282
-0.128379002213478088 -0.267310082912445068 0.0723565071821212769
-0.121105320751667023 -0.368431985378265381 0.0727316588163375854
-0.128379002213478088 0.00385528150945901871 0.0731871426105499268
-0.128379002213478088 -0.337790548801422119 0.073823884129524231
-0.128379002213478088 0.030067741870880127 0.0744386613368988037
0.0591692440211772919 -0.246507614850997925 0.0745699405670166016
0.10709361732006073 0.359901010990142822 0.0748832598328590393
0.0588855482637882233 -0.128904104232788086 0.0749039947986602783
-0.128379002213478088 0.0772784724831581116 0.0750685185194015503
0.0317727439105510712 0.367814809083938599 0.0752400532364845276
0.0586192235350608826 -0.149089962244033813 0.0753364711999893188
0.060647275298833847 0.335482925176620483 0.075520247220993042
-0.128379002213478088 0.277864038944244385 0.0772382840514183044
-0.128379002213478088 0.121650397777557373 0.077411159873008728
0.0859620273113250732 -0.347446143627166748 0.0778192877769470215
0.0576111562550067902 -0.246962845325469971 0.077967129647731781
-0.128379002213478088 0.343177378177642822 0.078036576509475708
-0.128379002213478088 0.00750167015939950943 0.0780676603317260742
-0.0182831808924674988 -0.368521004915237427 0.0782566145062446594
-0.128379002213478088 -0.247204884886741638 0.078642234206199646
-0.128379002213478088 -0.34132617712020874 0.080320313572883606
-0.128379002213478088 -0.0893905982375144958 0.0809169560670852661
0.0553145557641983032 -0.240747198462486267 0.0810194909572601318
0.0548821836709976196 0.239189624786376953 0.0813581496477127075
0.0545189641416072845 0.277259618043899536 0.081502087414264679
-0.128379002213478088 -0.254120171070098877 0.0817652270197868347
-0.128379002213478088 0.0303493179380893707 0.0818480923771858215
0.0545913726091384888 0.360266655683517456 0.0826730802655220032
0.0541932210326194763 -0.318818002939224243 0.0827877670526504517
0.105069637298583984 -0.347825616598129272 0.0828054472804069519
0.053277965635061264 0.161594823002815247 0.0830813497304916382
0.0535298697650432587 -0.244581550359725952 0.0835232213139533997
0.0528933964669704437 0.246920183300971985 0.0836414992809295654
0.0530646815896034241 -0.322707325220108032 0.0842374265193939209
0.0523184947669506073 0.146747946739196777 0.0844283327460289001
-0.00483928993344306946 -0.368521004915237427 0.0847031772136688232
0.0519045442342758179 -0.0261298324912786484 0.0859171599149703979
0.0515165627002716064 0.0389160066843032837 0.086296863853931427
0.0731678605079650879 0.358401268720626831 0.0863374173641204834
0.0515456497669219971 -0.0181493423879146576 0.0865253955125808716
0.0976281985640525818 0.358676254749298096 0.087955772876739502
0.0496606417000293732 0.223437145352363586 0.0881719514727592468
0.0496996194124221802 0.329251885414123535 0.0881846249103546143
0.0494484789669513702 -0.133658766746520996 0.0883426293730735779
0.0500803403556346893 0.025551890954375267 0.0883467942476272583
0.0497839450836181641 -0.27019965648651123 0.0884536653757095337
-0.128379002213478088 0.104424759745597839 0.0885700657963752747
0.0494013354182243347 -0.257049560546875 0.088945537805557251
0.049139413982629776 -0.307796746492385864 0.0892842262983322144
0.0671398565173149109 0.347251266241073608 0.089591294527053833
0.12007904052734375 0.357656747102737427 0.0899945646524429321
0.0479453131556510925 0.181417509913444519 0.0903022736310958862
0.048229459673166275 0.0344473235309123993 0.0905988365411758423
0.048094186931848526 -0.0502879992127418518 0.0906053856015205383
0.0480437465012073517 0.041747458279132843 0.0906904712319374084
-0.128379002213478088 -0.0554575026035308838 0.0907006561756134033
0.0471199639141559601 -0.167326942086219788 0.0913307815790176392
0.0473061129450798035 0.097872123122215271 0.0915304571390151978
-0.128379002213478088 -0.041019391268491745 0.0925638079643249512
-0.128379002213478088 0.0267672855406999588 0.0944138467311859131
0.044666636735200882 0.137852758169174194 0.0947682410478591919
0.0446323119103908539 -0.299069643020629883 0.0950082689523696899
-0.128379002213478088 0.0497966893017292023 0.0952542200684547424
0.0856554880738258362 0.349169015884399414 0.0952987894415855408
0.0436808280646800995 -0.137252926826477051 0.0953639447689056396
0.0440068691968917847 -0.00427414849400520325 0.0956029817461967468
0.0441825799643993378 0.243803173303604126 0.0957042127847671509
0.0497283823788166046 -0.344690501689910889 0.0961699262261390686
0.0435477383434772491 -0.172888517379760742 0.0963736176490783691
0.111098341643810272 -0.349976062774658203 0.096416376531124115
0.0698317736387252808 0.35092964768409729 0.0965649336576461792
-0.128379002213478088 -0.241167038679122925 0.0967612564563751221
-0.128379002213478088 -0.0440959036350250244 0.0968021005392074585
0.0554124973714351654 -0.355963140726089478 0.096811637282371521
0.0409512221813201904 -0.125911667943000793 0.0973351150751113892
0.0429335944354534149 -0.218567878007888794 0.0973588749766349792
-0.128379002213478088 -0.00409188820049166679 0.0973785370588302612
-0.128379002213478088 -0.257320523262023926 0.0974905341863632202
-0.128379002213478088 0.0914786830544471741 0.0979636907577514648
0.042653743177652359 0.283225536346435547 0.0981587991118431091
0.0644946396350860596 -0.353077560663223267 0.0982217639684677124
0.0410795137286186218 0.00574646005406975746 0.0985867530107498169
0.0372531525790691376 -0.128765136003494263 0.0985905751585960388
0.0421566329896450043 -0.263879746198654175 0.0986052751541137695
0.0358335338532924652 -0.131906479597091675 0.0995773747563362122
0.0297452732920646667 -0.0657928138971328735 0.0996447429060935974
-0.0387040004134178162 0.368275374174118042 0.0998716503381729126
0.0327099822461605072 0.133118778467178345 0.0998774021863937378
0.0388938263058662415 -0.0388803072273731232 0.0998851507902145386
-0.113192640244960785 0.367799371480941772 0.0999763756990432739
-0.128379002213478088 0.0274718571454286575 0.100048571825027466
0.038597889244556427 0.109843432903289795 0.100061103701591492
0.0340556353330612183 0.0626212731003761292 0.100159496068954468
0.0373177193105220795 -0.0876411795616149902 0.100245021283626556
0.0368893034756183624 -0.0556596256792545319 0.100312724709510803
0.0370648093521595001 -0.0133749553933739662 0.100348688662052155
0.0359351113438606262 0.0187228396534919739 0.100350499153137207
0.0354782417416572571 -0.0130048776045441628 0.100351229310035706
0.0343051590025424957 -0.0997395366430282593 0.100382879376411438
-0.0611005872488021851 -0.368521004915237427 0.100540131330490112
0.026364276185631752 0.0186660643666982651 0.100751779973506927
-0.128379002213478088 -0.342111676931381226 0.101089365780353546
0.0421598181128501892 -0.337603390216827393 0.101541504263877869
0.0408543087542057037 -0.220488935708999634 0.101653993129730225
0.0408403351902961731 -0.289352238178253174 0.102043978869915009
-0.128379002213478088 0.0824198052287101746 0.102831311523914337
-0.0165411457419395447 -0.368521004915237427 0.103168204426765442
-0.00540188373997807503 0.367812961339950562 0.104470282793045044
0.0176641307771205902 -0.368521004915237427 0.104563295841217041
-0.010066324844956398 0.368065923452377319 0.104799710214138031
0.0398344844579696655 0.247547119855880737 0.105141140520572662
-0.128379002213478088 -0.122765026986598969 0.105480797588825226
0.0224787704646587372 -0.102205231785774231 0.105498969554901123
-0.128379002213478088 -0.100680910050868988 0.106276750564575195
-0.0510034449398517609 0.367774486541748047 0.106915012001991272
0.0374198704957962036 0.160793885588645935 0.108003206551074982
-0.128379002213478088 -0.312317013740539551 0.108109548687934875
-0.128379002213478088 -0.143017709255218506 0.108616620302200317
-0.128379002213478088 0.296598166227340698 0.109000369906425476
0.020635383203625679 -0.0554200150072574615 0.109075330197811127
-0.128379002213478088 0.0560024864971637726 0.109268374741077423
0.0389600619673728943 -0.239842504262924194 0.10955510288476944
0.0300061497837305069 -0.139629349112510681 0.109638385474681854
0.0296075623482465744 -0.368521004915237427 0.109883666038513184
-0.128379002213478088 -0.266784042119979858 0.110138125717639923
-0.0270733218640089035 -0.368521004915237427 0.110211968421936035
-0.128379002213478088 -0.0828810706734657288 0.110812120139598846
0.0386578924953937531 -0.220900192856788635 0.112010538578033447
0.0189505964517593384 0.0357706025242805481 0.11370106041431427
-0.128379002213478088 -0.273496896028518677 0.113814234733581543
-0.128379002213478088 0.259029746055603027 0.114241689443588257
-0.0783086791634559631 0.367520004510879517 0.114690035581588745
0.0194361228495836258 -0.103282667696475983 0.115028321743011475
-0.128379002213478088 0.162834808230400085 0.115613549947738647
-0.128379002213478088 0.0106946388259530067 0.115857169032096863
0.0265586785972118378 -0.138138771057128906 0.11595134437084198
-0.128379002213478088 0.342000484466552734 0.11601749062538147
0.0180509611964225769 -0.0158575065433979034 0.116543464362621307
-0.128379002213478088 -0.119505502283573151 0.116796396672725677
-0.126488581299781799 -0.36484411358833313 0.116863682866096497
-0.128379002213478088 -0.0298402030020952225 0.117203660309314728
0.0180972814559936523 -0.0580678544938564301 0.117524966597557068
0.0345494635403156281 0.161165967583656311 0.117683552205562592
0.0243233479559421539 -0.136995062232017517 0.117773137986660004
0.0387257225811481476 -0.265560388565063477 0.117855839431285858
0.0391018018126487732 0.366447389125823975 0.118179313838481903
0.018456755205988884 -0.105196669697761536 0.118529945611953735
0.000606221612542867661 -0.368521004915237427 0.118555732071399689
-0.128379002213478088 0.351123601198196411 0.119095318019390106
-0.0490190684795379639 0.367855459451675415 0.119311414659023285
-0.0383291281759738922 -0.368521004915237427 0.119515024125576019
0.0175925120711326599 -0.0664164721965789795 0.119863905012607574
-0.128379002213478088 -0.253242939710617065 0.120009563863277435
-0.128379002213478088 -0.0871245041489601135 0.120076991617679596
0.0424405112862586975 0.353832364082336426 0.120118655264377594
0.0393475592136383057 -0.302047014236450195 0.120168402791023254
0.0179284978657960892 -0.124063096940517426 0.120247036218643188
0.0305250752717256546 0.159891098737716675 0.120742574334144592
-0.128379002213478088 -0.116464212536811829 0.121364578604698181
-0.0636595860123634338 -0.368521004915237427 0.121377184987068176
0.0311586018651723862 0.160319417715072632 0.12150881439447403
0.0163295697420835495 0.00765791069716215134 0.122042044997215271
-0.00548878125846385956 -0.368521004915237427 0.122603923082351685
0.0158196128904819489 0.115434244275093079 0.123682364821434021
-0.128379002213478088 -0.333221912384033203 0.12430214136838913
0.0156187061220407486 0.103583052754402161 0.124328598380088806
0.0408105440437793732 -0.364965707063674927 0.124360308051109314
-0.128318190574645996 0.359495550394058228 0.124591022729873657
-0.128379002213478088 -0.251688241958618164 0.124777227640151978
-0.127135097980499268 0.363272488117218018 0.124863468110561371
0.0393484011292457581 -0.306547105312347412 0.125845298171043396
0.0161907244473695755 -0.0962333306670188904 0.125851467251777649
0.0388899818062782288 -0.251051813364028931 0.12618003785610199
0.0393445864319801331 0.171727970242500305 0.126206845045089722
-0.128379002213478088 -0.233035504817962646 0.127133861184120178
-0.128379002213478088 0.0923614874482154846 0.127451971173286438
-0.128379002213478088 0.105372868478298187 0.127988830208778381
0.0393482893705368042 -0.285622894763946533 0.128732159733772278
-0.0928121954202651978 0.367520004510879517 0.12893792986869812
-0.128379002213478088 0.298905104398727417 0.129094406962394714
0.0151317156851291656 -0.085597403347492218 0.129250362515449524
-0.0686420649290084839 0.367520004510879517 0.129408463835716248
0.0135112190619111061 0.138955309987068176 0.131280913949012756
-0.128379002213478088 -0.305873692035675049 0.132609710097312927
-0.0597258619964122772 -0.368521004915237427 0.133107662200927734
-0.128379002213478088 0.0865749046206474304 0.133583948016166687
0.0393484011292457581 -0.284589588642120361 0.134037584066390991
0.0351252183318138123 -0.142940551042556763 0.134142622351646423
0.0385239459574222565 -0.18693232536315918 0.135188251733779907
-0.128379002213478088 -0.219371601939201355 0.13636152446269989
-0.128379002213478088 0.0137297362089157104 0.136442184448242188
-0.128379002213478088 0.180975109338760376 0.136477142572402954
0.0368564724922180176 -0.367506444454193115 0.136806249618530273
0.000244845869019627571 -0.368521004915237427 0.137348949909210205
0.0373001657426357269 -0.145597726106643677 0.137514486908912659
-0.128379002213478088 -0.0978512614965438843 0.137647479772567749
0.0391307659447193146 -0.366455018520355225 0.137741908431053162
-0.0640880614519119263 -0.368521004915237427 0.138087958097457886
0.011891484260559082 -0.0819062069058418274 0.138518139719963074
0.0385309159755706787 0.215926811099052429 0.138624176383018494
0.0386705882847309113 -0.167414873838424683 0.1387777179479599
0.0255940798670053482 -0.141056761145591736 0.139486134052276611
-0.128379002213478088 -0.189347550272941589 0.139688849449157715
0.0393483154475688934 -0.253413200378417969 0.140101388096809387
0.0393272601068019867 -0.329689055681228638 0.140503779053688049
0.0109255732968449593 -0.0139623573049902916 0.140937164425849915
0.010961516760289669 0.0331501103937625885 0.141029328107833862
-0.128379002213478088 -0.206476971507072449 0.141037911176681519
-0.128379002213478088 0.108655862510204315 0.141092091798782349
-0.0541118606925010681 0.367647618055343628 0.142064675688743591
0.0324453525245189667 -0.368521004915237427 0.142137289047241211
0.0104979332536458969 -0.0361804701387882233 0.142409384250640869
-0.0868491902947425842 0.367520004510879517 0.14438997209072113
0.0387812219560146332 0.18159012496471405 0.144772812724113464
0.00961206760257482529 -0.00529796676710247993 0.145050257444381714
0.0393482334911823273 -0.239436626434326172 0.145290940999984741
-0.128379002213478088 -0.27935364842414856 0.145439714193344116
-0.00450458284467458725 -0.368521004915237427 0.145916387438774109
-0.128379002213478088 -0.0624976344406604767 0.146073102951049805
-0.10270196944475174 0.36751943826675415 0.146286949515342712
-0.128379002213478088 -0.335444062948226929 0.147690072655677795
-0.121798150241374969 0.367910504341125488 0.147885754704475403
-0.128379002213478088 0.280106276273727417 0.148707419633865356
0.00895069818943738937 0.0774370729923248291 0.148719683289527893
0.00871059205383062363 0.109741173684597015 0.14965115487575531
-0.128379002213478088 -0.308894902467727661 0.150323554873466492
-0.128379002213478088 0.33342289924621582 0.150556012988090515
0.0391660444438457489 -0.170826941728591919 0.150920480489730835
-0.128379002213478088 0.0647541806101799011 0.151128113269805908
0.00681730685755610466 -0.113221779465675354 0.152635186910629272
0.0393484011292457581 -0.243874028325080872 0.15270666778087616
0.00677577266469597816 -0.0937556326389312744 0.152768507599830627
-0.114875786006450653 0.367855668067932129 0.153656378388404846
-0.128379002213478088 -0.315798491239547729 0.1538735032081604
-0.128379002213478088 0.235290884971618652 0.154210999608039856
0.006412457674741745 0.0161503143608570099 0.154365569353103638
0.0393075048923492432 -0.184135854244232178 0.154391467571258545
0.0421125814318656921 -0.353574961423873901 0.154549792408943176
0.0393170490860939026 -0.193512037396430969 0.154625564813613892
-0.128379002213478088 -0.0508746914565563202 0.154968127608299255
-0.0663265660405158997 -0.368521004915237427 0.155221372842788696
-0.00248456699773669243 0.368295609951019287 0.155782550573348999
-0.128379002213478088 0.205719336867332458 0.156245246529579163
0.0259940847754478455 0.367578953504562378 0.156923562288284302
-0.128379002213478088 -0.192664578557014465 0.157787606120109558
0.00613248255103826523 0.116862669587135315 0.158183842897415161
-0.128379002213478088 -0.27717667818069458 0.158914893865585327
-0.128379002213478088 -0.250568032264709473 0.159433767199516296
0.0383476987481117249 0.300427675247192383 0.159690007567405701
