ply
format ascii 1.0
element vertex 724
property float x
property float y
property float z
end_header
0.0444511435925960541 -0.242767408490180969 -0.0272797401994466782
0.0442717075347900391 0.169049531221389771 -0.027279440313577652
0.0437577404081821442 -0.104540012776851654 -0.0272787585854530334
0.0420873686671257019 -0.221375137567520142 -0.0272763930261135101
0.136162504553794861 0.0958452373743057251 -0.0272717606276273727
0.0795797780156135559 0.316957354545593262 -0.0272664166986942291
0.137095987796783447 0.107540726661682129 -0.0272624902427196503
0.138151347637176514 -0.0154455909505486488 -0.0272526610642671585
0.138594210147857666 0.169693410396575928 -0.0272479094564914703
0.138963043689727783 -0.220918640494346619 -0.02724466472864151
0.1420489102602005 -0.0204151943325996399 -0.0272150188684463501
0.142367228865623474 -0.257184863090515137 -0.0272122975438833237
0.0881549715995788574 0.323517739772796631 -0.0270702242851257324
0.143330618739128113 0.0649191737174987793 -0.0268956981599330902
0.145277544856071472 -0.209639281034469604 -0.0262020900845527649
0.0291410088539123535 0.330039262771606445 -0.0260670427232980728
0.145012900233268738 -0.128633633255958557 -0.0258354172110557556
0.146442398428916931 0.0438503697514533997 -0.0256553925573825836
-0.1455727219581604 -0.347775638103485107 -0.0250840801745653152
0.147656649351119995 -0.0200268924236297607 -0.0250582750886678696
0.00862028822302818298 -0.33551633358001709 -0.0245941411703824997
0.14800378680229187 -0.163358137011528015 -0.0245401784777641296
-0.15141962468624115 0.196380108594894409 -0.0242277104407548904
0.00312025449238717556 -0.336654305458068848 -0.0240602102130651474
0.148935824632644653 -0.185760259628295898 -0.0238256640732288361
0.150820881128311157 0.321099638938903809 -0.0237669087946414948
0.0795755386352539062 0.329964995384216309 -0.023662913590669632
0.148649945855140686 -0.167323291301727295 -0.0233215205371379852
0.15141962468624115 -0.302114188671112061 -0.0232629738748073578
0.0927231088280677795 -0.330306887626647949 -0.0232502669095993042
0.149002581834793091 0.0804052054882049561 -0.0225740633904933929
0.151090174913406372 -0.289599835872650146 -0.0219013448804616928
0.15114101767539978 -0.313589215278625488 -0.0207065548747777939
-0.15141962468624115 -0.0659858956933021545 -0.0199039895087480545
-0.15141962468624115 -0.0741348639130592346 -0.019769446924328804
0.150607913732528687 -0.146811202168464661 -0.0194045994430780411
-0.0901642888784408569 -0.347987115383148193 -0.0187659095972776413
0.0105709303170442581 0.33459240198135376 -0.0187332835048437119
-0.128529772162437439 0.34775388240814209 -0.0186560060828924179
0.150573864579200745 0.0257123187184333801 -0.0186074934899806976
-0.0982613712549209595 -0.347987115383148193 -0.0182304196059703827
-0.15141962468624115 -0.164457410573959351 -0.0170539692044258118
0.0597489885985851288 0.330889344215393066 -0.0168218463659286499
0.0575264506042003632 -0.331092119216918945 -0.0155662447214126587
0.148180171847343445 0.328819513320922852 -0.0155473630875349045
-0.0460031256079673767 0.34775388240814209 -0.015326828695833683
0.150817662477493286 0.0356763824820518494 -0.0152375912293791771
-0.15141962468624115 0.315930068492889404 -0.0149247879162430763
0.149246737360954285 0.0211833957582712173 -0.014489833265542984
0.112539567053318024 0.331012904644012451 -0.0130140800029039383
-0.15141962468624115 -0.0149898882955312729 -0.0126589303836226463
0.150963246822357178 0.318832159042358398 -0.0126192988827824593
-0.15141962468624115 -0.167839214205741882 -0.0125108007341623306
-0.047688070684671402 0.34775388240814209 -0.0123596936464309692
0.148014307022094727 -0.124310679733753204 -0.0112120946869254112
0.147860392928123474 -0.0635008066892623901 -0.0106605822220444679
0.148601636290550232 0.0395362935960292816 -0.0106469662860035896
-0.15141962468624115 0.141783922910690308 -0.0103643108159303665
-0.15141962468624115 0.129873022437095642 -0.0103526897728443146
0.147306308150291443 -0.03385128453373909 -0.00946566276252269745
0.146840572357177734 0.251366734504699707 -0.00914843659847974777
-0.15141962468624115 -0.239214897155761719 -0.00864601414650678635
-0.0522235669195652008 -0.347987115383148193 -0.00784176867455244064
0.145839482545852661 0.0158262569457292557 -0.00728899985551834106
0.145594373345375061 0.230999335646629333 -0.00709046656265854836
0.145532488822937012 0.175718992948532104 -0.00703057507053017616
0.150443583726882935 0.32016444206237793 -0.00680340314283967018
0.14506886899471283 0.0104198772460222244 -0.00639814650639891624
0.145120218396186829 0.0901547148823738098 -0.00636424822732806206
0.0889884233474731445 -0.331092119216918945 -0.00618482567369937897
0.144594639539718628 -0.0344018079340457916 -0.00571236526593565941
0.144291147589683533 -0.0659945383667945862 -0.00540356198325753212
0.147616282105445862 -0.30231165885925293 -0.00493281660601496696
0.140830650925636292 -0.268610894680023193 -0.00462770275771617889
0.140575483441352844 -0.268855512142181396 -0.00459806853905320168
0.137685671448707581 -0.0236053913831710815 -0.00442217104136943817
-0.0181222390383481979 -0.339475691318511963 -0.00440212618559598923
0.137032344937324524 0.050504196435213089 -0.00428374717012047768
0.135319456458091736 -0.209137767553329468 -0.00418322905898094177
0.137404337525367737 -0.221820428967475891 -0.00418043229728937149
-0.15141962468624115 0.0828756093978881836 -0.00414005620405077934
0.127809375524520874 0.0100376401096582413 -0.00410690717399120331
0.135538771748542786 0.0689549520611763 -0.00407030200585722923
0.134017527103424072 0.219554319977760315 -0.0039020744152367115
0.130700036883354187 0.156718820333480835 -0.00387856131419539452
0.124724008142948151 -0.126948103308677673 -0.00383540266193449497
0.107610516250133514 -0.00224629463627934456 -0.00370836840011179447
0.13009469211101532 0.181405022740364075 -0.00363927241414785385
0.119850896298885345 -0.122950546443462372 -0.00363616552203893661
0.0979971587657928467 0.2026967853307724 -0.00360193802043795586
0.112822175025939941 0.253472506999969482 -0.00354110612533986568
0.127606689929962158 -0.139402449131011963 -0.00348908477462828159
0.122045978903770447 0.0846328288316726685 -0.00347418989986181259
0.121144302189350128 0.279495596885681152 -0.00345318973995745182
0.126181259751319885 -0.061246529221534729 -0.00337762618437409401
0.125895038247108459 -0.0181136857718229294 -0.00322650210000574589
0.102550357580184937 0.28918766975402832 -0.00322426250204443932
0.0957940965890884399 -0.169242560863494873 -0.00321372225880622864
0.100684665143489838 -0.164538323879241943 -0.00321265030652284622
0.106893494725227356 0.278978943824768066 -0.00320911034941673279
0.106424137949943542 -0.247979432344436646 -0.00320875714533030987
0.0950600206851959229 0.126313790678977966 -0.00314477388747036457
0.0999481603503227234 -0.0585681051015853882 -0.00311551219783723354
0.0926087349653244019 -0.129124224185943604 -0.00301226833835244179
0.103159487247467041 0.266815066337585449 -0.0029699734877794981
0.024995783343911171 0.330926120281219482 -0.00296733248978853226
0.092989794909954071 0.114841245114803314 -0.00292437197640538216
0.0995402932167053223 -0.154397979378700256 -0.00291470997035503387
0.149445042014122009 -0.311846733093261719 -0.00289878901094198227
0.0962411612272262573 -0.14095740020275116 -0.00277718761935830116
0.101997435092926025 -0.0347945094108581543 -0.00277467933483421803
0.103417903184890747 -0.0653875172138214111 -0.00265270750969648361
0.116786614060401917 0.140177145600318909 -0.00260466150939464569
0.114677160978317261 0.14210134744644165 -0.00256158085539937019
0.0971494242548942566 -0.261398851871490479 -0.00248797191306948662
0.117309972643852234 -0.269467353820800781 -0.00248604593798518181
0.0928443148732185364 -0.279016494750976562 -0.00230431137606501579
-0.0564458742737770081 -0.347987115383148193 -0.00228217802941799164
0.0901503190398216248 -0.222231671214103699 -0.00191272562369704247
0.0892204269766807556 -0.110808856785297394 -0.00174767663702368736
0.0861644968390464783 0.0431855693459510803 -0.000952606089413166046
-0.15141962468624115 0.158571541309356689 -0.000338855141308158636
0.0848106220364570618 0.097771964967250824 -7.44592543924227357e-05
0.0840408354997634888 -0.277760565280914307 0.000168074184330180287
-0.15141962468624115 0.206692039966583252 0.000644726213067770004
0.0828694179654121399 -0.251307189464569092 0.000715842645149677992
0.139015525579452515 -0.301208734512329102 0.00152668228838592768
0.100824102759361267 0.331012904644012451 0.00292268977500498295
0.0803719833493232727 0.205160096287727356 0.00299092056229710579
0.0800742506980895996 -0.130431532859802246 0.00320973526686429977
-0.0823085308074951172 0.34775388240814209 0.00378183554857969284
-0.15141962468624115 -0.191201269626617432 0.00383866834454238415
-0.15141962468624115 -0.00770449452102184296 0.004464718047529459
-0.0442350506782531738 -0.347987115383148193 0.004567726980894804
-0.15141962468624115 0.30917280912399292 0.00486064702272415161
0.0786751881241798401 -0.116133652627468109 0.00490503665059804916
0.0785560384392738342 0.019781794399023056 0.00505124824121594429
-0.15141962468624115 0.104828737676143646 0.00533433584496378899
0.0781479701399803162 -0.184931963682174683 0.00545794377103447914
0.076838269829750061 -0.0533364191651344299 0.00655948091298341751
0.0770897716283798218 0.165145307779312134 0.00676402263343334198
0.136549010872840881 -0.330931007862091064 0.0068062320351600647
-0.15141962468624115 0.147046908736228943 0.00712428567931056023
-0.146660566329956055 -0.347709894180297852 0.0071924193762242794
0.0755698904395103455 -0.079801805317401886 0.00906439777463674545
-0.15141962468624115 0.135996073484420776 0.00921729672700166702
0.143134430050849915 0.306237399578094482 0.0100079867988824844
0.0712866410613059998 -0.00409201765432953835 0.010116170160472393
-0.15141962468624115 0.109024420380592346 0.0102315209805965424
0.0697402358055114746 -0.0589478611946105957 0.0102494237944483757
0.072627432644367218 0.139283075928688049 0.0104093411937355995
0.0734851732850074768 -0.273510396480560303 0.0105773834511637688
-0.15141962468624115 0.314742863178253174 0.0106947440654039383
0.0677871033549308777 0.00792827364057302475 0.0108177252113819122
0.0604068562388420105 0.0515435598790645599 0.0108687812462449074
0.0630153343081474304 -0.0435533970594406128 0.0108889453113079071
0.0589516758918762207 0.0802008435130119324 0.0109829409047961235
0.0599424839019775391 -0.0530184246599674225 0.0110023161396384239
0.066624075174331665 0.150022536516189575 0.0110350465402007103
0.0666807219386100769 -0.20766100287437439 0.0111083071678876877
0.0583214536309242249 0.291647553443908691 0.0111232241615653038
0.070530720055103302 -0.214478582143783569 0.0111501235514879227
0.0591356940567493439 0.198892518877983093 0.0111725311726331711
0.0592560730874538422 -0.0862184315919876099 0.0111733069643378258
0.0601655729115009308 0.208504393696784973 0.0111788045614957809
0.060690954327583313 0.251232504844665527 0.0111819803714752197
0.0655757337808609009 -0.255500912666320801 0.0111856693401932716
0.0544993206858634949 -0.114690124988555908 0.0119466846808791161
0.11131664365530014 0.331012904644012451 0.0121541684493422508
0.0221764873713254929 -0.331386983394622803 0.0130544928833842278
-0.15141962468624115 0.0191734433174133301 0.0131817087531089783
-0.14276549220085144 0.347713232040405273 0.0132074663415551186
0.0517100654542446136 -0.0100501244887709618 0.0135696819052100182
0.0516348406672477722 -0.056868232786655426 0.0136134549975395203
0.0492334477603435516 -0.0995347276329994202 0.0150107638910412788
0.0604067593812942505 -0.331092119216918945 0.0166267585009336472
0.0470191426575183868 0.133047252893447876 0.0171561632305383682
0.0774805694818496704 -0.302312791347503662 0.0174683835357427597
0.0470923036336898804 -0.139139845967292786 0.0175701435655355453
0.0534267351031303406 -0.331092119216918945 0.0176273118704557419
0.0278875995427370071 -0.331060409545898438 0.0181040093302726746
0.136479616165161133 0.307000219821929932 0.0188066009432077408
-0.0110868392512202263 -0.337576627731323242 0.0195223726332187653
-0.15141962468624115 -0.177459210157394409 0.0195525679737329483
0.0169679522514343262 -0.332376480102539062 0.0195819772779941559
0.114900760352611542 0.330992341041564941 0.0195981282740831375
-0.15141962468624115 -0.145276784896850586 0.0196085162460803986
0.019121827557682991 0.331859469413757324 0.0201563332229852676
-0.0108969984576106071 -0.337546885013580322 0.0205618925392627716
0.0445314086973667145 0.155445396900177002 0.0205812342464923859
-0.15141962468624115 0.0595190897583961487 0.0214524827897548676
-0.15141962468624115 0.05207047238945961 0.0217573307454586029
0.134837254881858826 -0.322905838489532471 0.0217708330601453781
0.0620823316276073456 0.330012917518615723 0.0220988932996988297
0.125544130802154541 -0.330580413341522217 0.0225621387362480164
0.0619114525616168976 -0.304795563220977783 0.0225712526589632034
-0.15141962468624115 0.145367786288261414 0.0227325223386287689
0.0431717410683631897 0.135220035910606384 0.0234825052320957184
0.0948903486132621765 -0.30556410551071167 0.0237994678318500519
0.0825584530830383301 -0.331085205078125 0.0242196936160326004
-0.15141962468624115 0.0440107062458992004 0.0242548491805791855
-0.15141962468624115 0.0768358707427978516 0.024318452924489975
0.0603602752089500427 -0.331092119216918945 0.0246416982263326645
0.0939531773328781128 0.33081287145614624 0.0247740782797336578
-0.149349793791770935 -0.346380531787872314 0.0251413732767105103
0.111397355794906616 -0.305480539798736572 0.0253530684858560562
-0.15141962468624115 -0.207019954919815063 0.0259673222899436951
0.104452088475227356 0.305374562740325928 0.0260049831122159958
-0.15141962468624115 -0.0177575089037418365 0.0263747479766607285
-0.0372468270361423492 0.347496390342712402 0.0268644001334905624
0.0336897261440753937 0.330607831478118896 0.0269092824310064316
0.0948797240853309631 -0.33101421594619751 0.0274224206805229187
0.100800395011901855 -0.331027567386627197 0.0286028850823640823
-0.15141962468624115 0.132267653942108154 0.0290205422788858414
0.0421309322118759155 -0.0865076631307601929 0.0301439054310321808
0.0420806407928466797 -0.0796167999505996704 0.0303655434399843216
0.0420339107513427734 0.330256640911102295 0.0303736589848995209
-0.15141962468624115 0.108522802591323853 0.0305657759308815002
0.108218885958194733 0.330315649509429932 0.0307727474719285965
-0.15141962468624115 0.113274946808815002 0.0309590138494968414
-0.15141962468624115 -0.17764735221862793 0.0314517803490161896
0.0417929664254188538 -0.089147523045539856 0.0316332727670669556
-0.15141962468624115 0.234249532222747803 0.0317090228199958801
0.0193100869655609131 0.331819534301757812 0.031827390193939209
0.0407951250672340393 0.201828986406326294 0.0322412885725498199
0.0414422266185283661 0.0917155146598815918 0.0329091772437095642
-0.15141962468624115 -0.0658209323883056641 0.0334224291145801544
-0.15141962468624115 -0.0942167192697525024 0.0338049754500389099
-0.0698706135153770447 -0.347987115383148193 0.0353648588061332703
-0.15141962468624115 0.147820308804512024 0.0356165021657943726
0.0411103330552577972 0.176597386598587036 0.0360763147473335266
0.103722840547561646 0.321518063545227051 0.0365283787250518799
-0.15141962468624115 0.262159824371337891 0.0365392044186592102
0.0982948318123817444 0.327998876571655273 0.0366819165647029877
-0.15141962468624115 -0.229058429598808289 0.0372427776455879211
0.0410347543656826019 0.279796838760375977 0.0377906188368797302
0.0411117896437644958 0.153901189565658569 0.0379157103598117828
0.0985348299145698547 -0.323389112949371338 0.03810843825340271
0.0974852815270423889 -0.316760063171386719 0.0389716513454914093
-0.0328118577599525452 0.346926689147949219 0.0392731092870235443
-0.15141962468624115 0.0778468102216720581 0.0398863814771175385
0.0414474792778491974 0.0929906889796257019 0.0408106446266174316
0.041376844048500061 -0.236387953162193298 0.0412508547306060791
0.0414472930133342743 0.11190524697303772 0.0412998273968696594
-0.15141962468624115 -0.291919946670532227 0.0413533560931682587
-0.140129566192626953 -0.347987115383148193 0.0415390543639659882
0.00754177803173661232 -0.335898280143737793 0.0418889150023460388
-0.15141962468624115 -0.237312033772468567 0.0425773262977600098
-0.021930404007434845 -0.341278195381164551 0.0429541170597076416
0.0412735380232334137 -0.21336616575717926 0.0436932630836963654
0.0417811796069145203 -0.0946317538619041443 0.0437269136309623718
0.0412439368665218353 -0.206361874938011169 0.0443931370973587036
0.0417811796069145203 0.00815099384635686874 0.0446163564920425415
-0.0441286489367485046 -0.347987115383148193 0.0449438393115997314
-0.15141962468624115 -0.211913853883743286 0.0455975346267223358
-0.151187464594841003 0.342029571533203125 0.0459171906113624573
0.00307420454919338226 -0.336672782897949219 0.046486489474773407
-0.15141962468624115 -0.144345715641975403 0.0470352843403816223
-0.15141962468624115 0.113817311823368073 0.0475044883787631989
0.073865942656993866 -0.305619120597839355 0.0481172576546669006
-0.0717170760035514832 -0.347987115383148193 0.0492003113031387329
-0.15141962468624115 0.261793732643127441 0.049863714724779129
0.0417811796069145203 -0.0360910966992378235 0.0498995259404182434
0.0416000783443450928 -0.117008209228515625 0.0499362871050834656
0.0421010479331016541 -0.289603650569915771 0.0511689111590385437
-0.0532314740121364594 0.34775388240814209 0.0514478124678134918
0.0430765599012374878 -0.293388783931732178 0.0515910238027572632
-0.15141962468624115 0.111349336802959442 0.0516702495515346527
0.0416346266865730286 0.237466305494308472 0.0519054941833019257
0.0416458062827587128 0.230744317173957825 0.0521710626780986786
-0.131312742829322815 0.34775388240814209 0.0522075556218624115
-0.15141962468624115 -0.32628476619720459 0.0527020767331123352
0.0414474792778491974 -0.133287742733955383 0.0540969222784042358
0.0417532883584499359 0.13303142786026001 0.054724518209695816
-0.15141962468624115 0.252443492412567139 0.0552411600947380066
0.0781569033861160278 -0.311762452125549316 0.0554567202925682068
-0.151410520076751709 0.336220502853393555 0.0558274909853935242
-0.15141962468624115 0.249574646353721619 0.055996280163526535
-0.15141962468624115 -0.217069834470748901 0.0561277046799659729
0.0469413027167320251 -0.299412667751312256 0.0572581738233566284
-0.15141962468624115 0.0215613674372434616 0.0573180988430976868
-0.15141962468624115 0.0807404294610023499 0.0580368191003799438
0.0417809225618839264 0.0793119221925735474 0.0582337602972984314
-0.0225378293544054031 0.341540038585662842 0.0584198832511901855
-0.0651763007044792175 -0.347987115383148193 0.058454565703868866
0.0417811796069145203 -0.0137890735641121864 0.0584661997854709625
0.0417809374630451202 0.0906402096152305603 0.0585213154554367065
-0.15141962468624115 0.109490230679512024 0.05854024738073349
-0.15141962468624115 0.119591757655143738 0.058603040874004364
0.0417811796069145203 0.0218857992440462112 0.058758176863193512
-0.15141962468624115 0.0338802114129066467 0.0589273795485496521
0.0417811796069145203 0.0133567415177822113 0.0590581037104129791
0.0718272551894187927 0.306244015693664551 0.062108062207698822
-0.15141962468624115 -0.160180091857910156 0.0626243650913238525
-0.15141962468624115 0.323650717735290527 0.0631938353180885315
-0.0805790796875953674 0.347678184509277344 0.0634932518005371094
0.0620541274547576904 0.305426895618438721 0.0641451254487037659
0.0417757332324981689 -0.145269334316253662 0.064564533531665802
-0.15141962468624115 -0.0706392824649810791 0.0645646750926971436
0.072947286069393158 0.307345449924468994 0.0647399574518203735
0.072905905544757843 -0.309313654899597168 0.0656594857573509216
0.00630747526884078979 0.335968554019927979 0.0661702603101730347
0.041769079864025116 0.237455114722251892 0.0663216635584831238
-0.15141017735004425 -0.337460041046142578 0.0668553262948989868
-0.100977584719657898 -0.347987115383148193 0.0673299804329872131
-0.151336401700973511 0.340412795543670654 0.0675019323825836182
-0.15141962468624115 0.289486467838287354 0.067701585590839386
-0.15141962468624115 -0.260184109210968018 0.0688591822981834412
0.023097822442650795 0.330736637115478516 0.068957105278968811
-0.0528729073703289032 -0.347987115383148193 0.0691026300191879272
0.0417283400893211365 -0.0736780241131782532 0.0691718459129333496
0.0417272374033927917 -0.00791736505925655365 0.0693315491080284119
-0.15141962468624115 -0.0490490198135375977 0.0694080591201782227
-0.15141962468624115 0.266048729419708252 0.0696391984820365906
0.0516484640538692474 -0.331031262874603271 0.0704549774527549744
-0.130872204899787903 -0.347987115383148193 0.0706379488110542297
0.0417140461504459381 -0.0917661488056182861 0.0707646831870079041
0.0417454466223716736 0.264927864074707031 0.0709769204258918762
-0.15141962468624115 -0.26603013277053833 0.0715245530009269714
-0.15141962468624115 0.293880820274353027 0.0719441846013069153
0.0413430929183959961 -0.281792223453521729 0.0721510574221611023
-0.0776239261031150818 -0.347987115383148193 0.0724226310849189758
0.0487957894802093506 0.301607012748718262 0.0726193413138389587
0.0414088331162929535 0.242326423525810242 0.0738235712051391602
0.0413896366953849792 -0.214130833745002747 0.0739766210317611694
0.0677352175116539001 -0.308976948261260986 0.0740713551640510559
0.0279061011970043182 0.330165624618530273 0.0742107108235359192
0.0412819162011146545 -0.0859828293323516846 0.0743841901421546936
-0.15141962468624115 0.172571346163749695 0.0744864344596862793
0.0412606820464134216 0.240179136395454407 0.0750764459371566772
0.0495776161551475525 0.329092621803283691 0.0752140805125236511
0.0327733010053634644 -0.329402029514312744 0.0752400681376457214
0.0411820374429225922 0.00113225833047181368 0.0754092931747436523
0.00895720813423395157 -0.335043251514434814 0.0763091146945953369
0.0401319526135921478 -0.0697197243571281433 0.0767556428909301758
-0.15141962468624115 0.225408062338829041 0.0767770484089851379
0.0402092486619949341 0.227351710200309753 0.0770046189427375793
0.0400508232414722443 -0.14275670051574707 0.0771349072456359863
-0.140859335660934448 -0.347987115383148193 0.0774939358234405518
-0.0332716032862663269 -0.347218215465545654 0.0775400474667549133
0.0391295105218887329 -0.0909871757030487061 0.0775800049304962158
-0.15141962468624115 0.0590973310172557831 0.0776779800653457642
0.0387568138539791107 -0.0636179298162460327 0.0778864920139312744
0.0476954653859138489 0.306029081344604492 0.0782586783170700073
-0.15141962468624115 -0.149107977747917175 0.0787122845649719238
0.0379808321595191956 0.0234337318688631058 0.078824557363986969
0.0321431607007980347 -0.0802269577980041504 0.0789302438497543335
-0.128300115466117859 -0.347987115383148193 0.0789422839879989624
0.037316787987947464 -0.255601108074188232 0.0789710879325866699
0.037111375480890274 0.247788548469543457 0.0789827406406402588
0.0369986593723297119 0.143460765480995178 0.078989081084728241
0.0359026864171028137 -0.254972279071807861 0.0790507048368453979
0.0242220740765333176 0.104933254420757294 0.0792006328701972961
0.0286467708647251129 0.0586796104907989502 0.0792383551597595215
0.0301953442394733429 0.0638147741556167603 0.0792538970708847046
0.0229803062975406647 -0.00691152876242995262 0.0794801786541938782
0.0223943237215280533 0.194447070360183716 0.079603932797908783
0.0283076930791139603 0.296826839447021484 0.0797415897250175476
0.0210494231432676315 -0.253078818321228027 0.0799420326948165894
0.0220206212252378464 0.288455843925476074 0.0799506381154060364
-0.0910751447081565857 -0.347987115383148193 0.0802602991461753845
0.0196116343140602112 -0.220339491963386536 0.0802778825163841248
0.0367867648601531982 -0.316454052925109863 0.0802873820066452026
0.0189956799149513245 0.0574055947363376617 0.0803561210632324219
0.0353216491639614105 -0.305058181285858154 0.0804840400815010071
0.0348189547657966614 0.308774828910827637 0.0805517733097076416
-0.0560936145484447479 0.34775388240814209 0.0805754512548446655
0.0181868374347686768 -0.0861054286360740662 0.0806123837828636169
0.0165666807442903519 0.208725318312644958 0.0813094154000282288
0.0341696850955486298 0.324894130229949951 0.0813741683959960938
0.0176656506955623627 0.287700653076171875 0.0814931914210319519
0.0161203369498252869 0.213314235210418701 0.0816028043627738953
0.0159767623990774155 0.24321708083152771 0.0816973596811294556
0.015835002064704895 0.257794499397277832 0.0817950516939163208
0.0157064907252788544 0.0528351292014122009 0.0818728134036064148
0.0155429206788539886 0.143277689814567566 0.0819823592901229858
-0.15141962468624115 0.204348698258399963 0.0820206627249717712
0.0156339947134256363 -0.242206662893295288 0.0821482762694358826
0.0153251625597476959 -0.16590416431427002 0.0823512747883796692
-0.15141962468624115 -0.0392826646566390991 0.0824696943163871765
0.0150793632492423058 -0.255031466484069824 0.0825127363204956055
-0.032221376895904541 0.346850812435150146 0.0825632587075233459
0.0149131994694471359 -0.0367258563637733459 0.0826155915856361389
-0.15141962468624115 0.177946388721466064 0.0833854600787162781
-0.15141962468624115 0.199615627527236938 0.0834826081991195679
0.0123115302994847298 0.192315086722373962 0.0843811407685279846
-0.0264838654547929764 0.34422379732131958 0.0846930220723152161
-0.0108262766152620316 -0.337535738945007324 0.0850031524896621704
-0.112380564212799072 -0.347987115383148193 0.0851908028125762939
0.0114031676203012466 -0.153053894639015198 0.0855624303221702576
0.0115138469263911247 -0.27187657356262207 0.085747256875038147
-0.15141962468624115 -0.079002968966960907 0.0857906267046928406
0.0109573779627680779 -0.165804430842399597 0.0859847217798233032
0.0107294358313083649 -0.11581796407699585 0.0862048342823982239
-0.0514744110405445099 -0.347987115383148193 0.0866050496697425842
-0.15141962468624115 0.160966083407402039 0.0866344869136810303
-0.0753162950277328491 -0.347987115383148193 0.0873732492327690125
-0.113106861710548401 0.347366452217102051 0.0874000862240791321
-0.15141962468624115 -0.00265999045222997665 0.0880254283547401428
0.00832963455468416214 0.0815104320645332336 0.0890280231833457947
-0.0634981319308280945 0.34775388240814209 0.0893361717462539673
-0.15141962468624115 0.237944871187210083 0.089649200439453125
0.00677695171907544136 0.181324079632759094 0.0897278264164924622
0.00609985645860433578 -0.108435027301311493 0.0905106663703918457
0.00690049910917878151 -0.0473655723035335541 0.0909590199589729309
0.00568299414590001106 0.187108635902404785 0.0909838825464248657
-0.15141962468624115 0.253623008728027344 0.0918915271759033203
-0.15141962468624115 0.147452741861343384 0.0919351726770401001
0.00461743446066975594 -0.227535918354988098 0.0923827439546585083
-0.132135048508644104 0.34775388240814209 0.0934104546904563904
-0.140095874667167664 -0.347987115383148193 0.0934319943189620972
-0.0457189790904521942 0.34775388240814209 0.0946492403745651245
-0.15141962468624115 -0.017087521031498909 0.095477662980556488
-0.00199202005751430988 0.336785554885864258 0.0957188010215759277
0.0265448000282049179 -0.311494827270507812 0.0959888249635696411
0.0224820617586374283 -0.32824629545211792 0.0962128043174743652
0.00232620234601199627 -0.19128166139125824 0.09633684903383255
0.0032320080790668726 -0.0394177883863449097 0.097103513777256012
-0.15141962468624115 0.0253403205424547195 0.0973213091492652893
0.0020715789869427681 -0.244959995150566101 0.0978711172938346863
-0.107374109327793121 0.347060918807983398 0.0979735925793647766
-0.15141962468624115 0.0704566836357116699 0.0982028394937515259
-0.15141962468624115 0.226949974894523621 0.0990607291460037231
-0.15141962468624115 0.205634981393814087 0.100033976137638092
0.00150457187555730343 0.208742484450340271 0.10128476470708847
0.0125934183597564697 -0.333136618137359619 0.101437009871006012
0.00155542150605469942 0.26744544506072998 0.102083288133144379
0.00214173318818211555 -0.0235892739146947861 0.102678745985031128
0.00157144886907190084 -0.25262296199798584 0.102817639708518982
-0.15141962468624115 -0.153799355030059814 0.103897757828235626
0.00674080615863204002 -0.287871599197387695 0.103900402784347534
-0.15141962468624115 0.0764750167727470398 0.104089267551898956
-0.15141962468624115 0.320498943328857422 0.104707151651382446
0.00216399598866701126 -0.132760092616081238 0.104811862111091614
-0.0189051106572151184 -0.339826524257659912 0.105190418660640717
-0.15141962468624115 0.0535589493811130524 0.105949841439723969
0.00258093257434666157 0.235334098339080811 0.106210313737392426
-0.15141962468624115 -0.0847633033990859985 0.106438159942626953
0.0199478268623352051 -0.325164556503295898 0.10723760724067688
-0.102168388664722443 0.346768021583557129 0.107757680118083954
-0.15141962468624115 -0.284079492092132568 0.109253600239753723
-0.15141962468624115 0.0259645991027355194 0.109262183308601379
0.00313070975244045258 -0.281881392002105713 0.109388232231140137
-0.15141962468624115 -0.251122176647186279 0.109470866620540619
0.00398202892392873764 0.224626004695892334 0.109632819890975952
-0.147531583905220032 0.347432315349578857 0.10990181565284729
0.00410428456962108612 -0.162109538912773132 0.110171996057033539
-0.15141962468624115 0.179279088973999023 0.110241055488586426
-0.147879347205162048 0.347359776496887207 0.11024155467748642
0.00416798330843448639 -0.0990567207336425781 0.110286705195903778
0.00215360289439558983 -0.274771988391876221 0.111025966703891754
0.00478271162137389183 0.0953783243894577026 0.111166603863239288
0.00547299999743700027 -0.244646847248077393 0.113191500306129456
0.00559902703389525414 -0.0223930776119232178 0.113461636006832123
0.00564803974702954292 -0.0655498132109642029 0.113555878400802612
-0.0675837397575378418 -0.347987115383148193 0.11356440931558609
0.00619560759514570236 0.216657847166061401 0.113870322704315186
0.00263488455675542355 0.276077389717102051 0.113938979804515839
0.0058091161772608757 -0.181616261601448059 0.113952122628688812
0.00634279986843466759 0.0405919253826141357 0.114150822162628174
0.00655326433479785919 0.131441637873649597 0.114551849663257599
-0.15141962468624115 0.161367565393447876 0.114773988723754883
0.00645667407661676407 -0.147848397493362427 0.115433149039745331
-0.00921969208866357803 -0.337283670902252197 0.115455500781536102
0.00678169680759310722 -0.0957010090351104736 0.115716837346553802
0.00755284726619720459 0.121150679886341095 0.116456598043441772
-0.15141962468624115 0.100225582718849182 0.117488808929920197
-0.150834947824478149 -0.345161974430084229 0.11785377562046051
0.00775883346796035767 -0.15095365047454834 0.118327245116233826
0.0158106274902820587 0.3037223219871521 0.118662416934967041
-0.00987381488084793091 -0.33738631010055542 0.118707522749900818
-0.15141962468624115 0.124393090605735779 0.119070820510387421
0.0083911186084151268 -0.197730422019958496 0.119596958160400391
0.0168048515915870667 0.306262195110321045 0.119851090013980865
-0.15141962468624115 -0.27358555793762207 0.120135851204395294
-0.050502236932516098 -0.347987115383148193 0.120372951030731201
-0.0444905944168567657 -0.347987115383148193 0.121050409972667694
0.0102191297337412834 0.181727945804595947 0.121769972145557404
0.0102290073409676552 0.129657760262489319 0.121789857745170593
0.00968109630048274994 -0.184686079621315002 0.122187420725822449
0.018156321719288826 0.324639678001403809 0.122534900903701782
-0.0874152332544326782 0.347391247749328613 0.122730076313018799
-0.0576750077307224274 0.34775388240814209 0.122747674584388733
0.0107174012809991837 0.0436439253389835358 0.123130448162555695
0.0110098486766219139 0.144605129957199097 0.124199390411376953
-0.00525151705369353294 0.336449205875396729 0.124990597367286682
0.0181247163563966751 0.310868442058563232 0.124991729855537415
0.0162766221910715103 0.304593443870544434 0.125088214874267578
-0.15141962468624115 -0.136870905756950378 0.126716196537017822
0.0183071326464414597 0.316143691539764404 0.127080217003822327
0.0119385020807385445 -0.0472414307296276093 0.127646267414093018
0.0117140868678689003 -0.219831958413124084 0.128107696771621704
-0.15141962468624115 -0.150013670325279236 0.128259837627410889
-0.15141962468624115 -0.130808383226394653 0.129142254590988159
0.012205890379846096 0.0675056427717208862 0.12947361171245575
-0.087471984326839447 0.347388863563537598 0.130600482225418091
0.012224959209561348 0.237412363290786743 0.130693435668945312
-0.15141962468624115 0.0408433079719543457 0.130985185503959656
0.0123035479336977005 -0.146508336067199707 0.131431430578231812
0.0124889407306909561 -0.137561336159706116 0.132476776838302612
-0.117792338132858276 0.347230255603790283 0.132649481296539307
0.0127087216824293137 -0.0839802399277687073 0.133371427655220032
0.0127188600599765778 0.103630177676677704 0.133434802293777466
0.0127559080719947815 -0.0278174653649330139 0.133734986186027527
-0.15141962468624115 -0.0855250805616378784 0.135341748595237732
-0.15141962468624115 0.238906532526016235 0.136210218071937561
-0.15141962468624115 -0.272528409957885742 0.136363774538040161
-0.151411831378936768 0.335645914077758789 0.137062728404998779
-0.15141962468624115 0.0830475538969039917 0.13707326352596283
0.0026082147378474474 -0.280029416084289551 0.137267395853996277
0.0128896450623869896 0.00988798588514328003 0.138375788927078247
-0.15141962468624115 -0.241044297814369202 0.138988345861434937
-0.140710428357124329 -0.347987115383148193 0.141344800591468811
-0.15141962468624115 0.0401932001113891602 0.142018735408782959
0.0127268042415380478 0.197842046618461609 0.14256364107131958
-0.15141962468624115 0.146078795194625854 0.143927395343780518
-0.15141962468624115 -0.17613518238067627 0.144208461046218872
0.0170596893876791 -0.304816842079162598 0.144461929798126221
-0.15141962468624115 0.234810292720794678 0.144824683666229248
0.0128988781943917274 -0.143253639340400696 0.145516768097877502
0.0176591556519269943 -0.307067692279815674 0.145585730671882629
0.018122384324669838 0.310758352279663086 0.145773082971572876
-0.0147596951574087143 0.337643861770629883 0.146026238799095154
-0.04762282595038414 0.34775388240814209 0.146034598350524902
0.0121482014656066895 0.25364840030670166 0.14725843071937561
0.0107506169006228447 -0.255710065364837646 0.148213207721710205
0.00293107260949909687 0.291040956974029541 0.148762121796607971
-0.15141962468624115 0.194280073046684265 0.148807376623153687
-0.15141962468624115 -0.275575101375579834 0.149083375930786133
0.0128988781943917274 -0.0680175051093101501 0.14976954460144043
0.0126404678449034691 -0.295830965042114258 0.149964228272438049
0.0128988781943917274 0.120606079697608948 0.150032311677932739
-0.15141962468624115 0.233344793319702148 0.150436520576477051
0.0146806035190820694 0.333160400390625 0.150821566581726074
0.0128988781943917274 -0.0392167828977108002 0.15112072229385376
-0.15141962468624115 0.00532511528581380844 0.151191607117652893
0.0128988781943917274 -0.0371421612799167633 0.151497885584831238
0.0031287467572838068 -0.271643102169036865 0.151572003960609436
-0.15141962468624115 -0.29400336742401123 0.152112603187561035
-0.15141962468624115 -0.16297595202922821 0.152482703328132629
0.0128910299390554428 -0.240864172577857971 0.152842938899993896
0.0121088903397321701 0.223543733358383179 0.153280556201934814
0.0127715421840548515 0.133435055613517761 0.153376087546348572
-0.0870331600308418274 -0.347987115383148193 0.153405115008354187
-0.15141962468624115 -0.0566558986902236938 0.153468266129493713
0.0128988781943917274 -0.227588191628456116 0.154378831386566162
-0.017252432182431221 0.338669478893280029 0.154925420880317688
0.0128988781943917274 0.0324421748518943787 0.155572399497032166
0.0128988781943917274 -0.0956142693758010864 0.155734211206436157
-0.15141962468624115 0.277832567691802979 0.15590965747833252
-0.15141962468624115 -0.274454057216644287 0.155916392803192139
0.0128988781943917274 0.11129201203584671 0.156099453568458557
-0.15141962468624115 -0.262454867362976074 0.156195253133773804
-0.15141962468624115 -0.168362125754356384 0.156462877988815308
0.0128988781943917274 -0.0739481449127197266 0.156590282917022705
0.00406174501404166222 -0.284428596496582031 0.156602025032043457
-0.15141962468624115 0.224071130156517029 0.15725281834602356
-0.0983600616455078125 -0.347987115383148193 0.157583475112915039
-0.0600665435194969177 0.34775388240814209 0.158645942807197571
-0.106431685388088226 0.34675288200378418 0.158711060881614685
0.0121157774701714516 0.202706679701805115 0.158786922693252563
0.012311902828514576 0.168999180197715759 0.158861786127090454
-0.0649811476469039917 0.34775388240814209 0.159590974450111389
0.00798529293388128281 -0.289553642272949219 0.160151690244674683
0.0182329695671796799 0.323065519332885742 0.160324111580848694
-0.0714696198701858521 -0.347987115383148193 0.161618426442146301
0.0151865389198064804 -0.300392210483551025 0.16202351450920105
-0.0339172892272472382 -0.347301304340362549 0.16389445960521698
-0.15141962468624115 -0.0346354283392429352 0.164709478616714478
-0.15141962468624115 0.0812867432832717896 0.164995491504669189
-0.0223947055637836456 -0.341595113277435303 0.165401175618171692
0.0178616531193256378 0.326352536678314209 0.166307181119918823
0.0128988781943917274 -0.11916254460811615 0.166473805904388428
0.00770310265943408012 0.336326479911804199 0.166541323065757751
0.0126153845340013504 -0.246803775429725647 0.16747833788394928
-0.15141962468624115 -0.225164204835891724 0.167996078729629517
0.018132377415895462 -0.323103129863739014 0.168669432401657104
0.0128988781943917274 -0.0352873951196670532 0.168744713068008423
-0.114092461764812469 0.346908092498779297 0.168776452541351318
0.0128988781943917274 -0.21650870144367218 0.168909177184104919
-0.15141962468624115 -0.171678945422172546 0.169463783502578735
-0.15141962468624115 0.0219894088804721832 0.170112594962120056
0.0127238016575574875 0.0611301474273204803 0.170328959822654724
0.0128988781943917274 -0.142419293522834778 0.171129807829856873
-0.124084621667861938 -0.347987115383148193 0.171889081597328186
-0.111042849719524384 0.346779286861419678 0.173852279782295227
0.0128988781943917274 0.00821415428072214127 0.173960477113723755
-0.15141962468624115 -0.016278507187962532 0.174414709210395813
-0.15141962468624115 0.245867222547531128 0.174563989043235779
-0.0638852566480636597 0.34775388240814209 0.175187379121780396
0.0128211425617337227 -0.153212472796440125 0.175937950611114502
-0.106041654944419861 0.34675288200378418 0.175940230488777161
0.0123618422076106071 0.104477480053901672 0.175949186086654663
-0.151241973042488098 -0.341674268245697021 0.176062390208244324
-0.15141962468624115 0.110963329672813416 0.176392301917076111
0.0089212469756603241 -0.290697395801544189 0.177097529172897339
-0.15141962468624115 0.312117338180541992 0.177202790975570679
0.0159039981663227081 -0.329503238201141357 0.177544936537742615
-0.15141962468624115 0.173102900385856628 0.177933499217033386
0.012713063508272171 -0.191614285111427307 0.178503051400184631
0.0156424902379512787 -0.329818367958068848 0.179624691605567932
-0.15141962468624115 0.217837333679199219 0.18016892671585083
0.00873945746570825577 -0.334837973117828369 0.180418580770492554
0.0126094240695238113 -0.0651278793811798096 0.180965214967727661
-0.15141962468624115 -0.237511172890663147 0.182272404432296753
-0.15141962468624115 -0.101040497422218323 0.182629629969596863
-0.100951895117759705 0.346820056438446045 0.182873740792274475
0.016168937087059021 0.304370582103729248 0.18340948224067688
-0.15141962468624115 0.0111728822812438011 0.183912917971611023
-0.15141962468624115 -0.057428259402513504 0.184337019920349121
-0.15141962468624115 -0.106168903410434723 0.184375837445259094
0.0128988781943917274 0.0454338788986206055 0.184383034706115723
0.0123531036078929901 0.158736974000930786 0.184842526912689209
0.0108532076701521873 0.260103106498718262 0.185118019580841064
-0.15141962468624115 -0.0755136162042617798 0.18567955493927002
0.0124042965471744537 -0.149005234241485596 0.185830995440483093
-0.15141962468624115 -0.144872263073921204 0.186671599745750427
0.0182703807950019836 0.315068602561950684 0.188231468200683594
-0.151023373007774353 -0.344053804874420166 0.188837751746177673
-0.15141962468624115 0.11362234503030777 0.189996600151062012
0.0125712733715772629 0.164976835250854492 0.190025195479393005
0.0182008501142263412 0.313043415546417236 0.190536230802536011
0.012565230019390583 -0.0266496725380420685 0.191159874200820923
-0.150725454092025757 -0.345251798629760742 0.191289141774177551
-0.15141962468624115 -0.279824733734130859 0.191325321793556213
0.0122311506420373917 -0.0822232365608215332 0.191485211253166199
0.0128988074138760567 0.0518498755991458893 0.191571563482284546
0.0126778315752744675 0.130005970597267151 0.192558780312538147
0.0127154774963855743 0.140227645635604858 0.193453863263130188
-0.15141962468624115 0.164898395538330078 0.194458082318305969
0.00869692396372556686 -0.290429294109344482 0.194717451930046082
-0.0263624079525470734 0.344103395938873291 0.194773569703102112
-0.15141962468624115 -0.154031634330749512 0.194874778389930725
-0.15141962468624115 0.23479163646697998 0.195261746644973755
-0.15141962468624115 -0.275020360946655273 0.195321366190910339
-0.15141962468624115 0.193478196859359741 0.196088448166847229
-0.15141962468624115 -0.197106614708900452 0.196327686309814453
-0.15141962468624115 0.00689237937331199646 0.196595624089241028
0.00280361645855009556 -0.275248527526855469 0.19720187783241272
-0.15141962468624115 -0.221590176224708557 0.19766862690448761
0.0174802672117948532 -0.306499004364013672 0.197701394557952881
-0.15141962468624115 0.275477051734924316 0.198334962129592896
-0.15141962468624115 0.044564511626958847 0.200196579098701477
0.0118986489251255989 -0.172197163105010986 0.200205966830253601
-0.0685053765773773193 -0.347987115383148193 0.200247257947921753
-0.15141962468624115 -0.113262005150318146 0.201766312122344971
-0.15141962468624115 0.0261820033192634583 0.202237457036972046
-0.15141962468624115 0.112591460347175598 0.202355116605758667
0.0120866680517792702 -0.24910205602645874 0.203388437628746033
-0.15141962468624115 -0.19483359158039093 0.203454822301864624
-0.15141962468624115 -0.327634930610656738 0.203573331236839294
0.0033428361639380455 -0.283699452877044678 0.204517990350723267
-0.150958582758903503 -0.344758987426757812 0.205119028687477112
-0.15141962468624115 -0.308387398719787598 0.205222651362419128
0.0118985753506422043 -0.150111615657806396 0.205603733658790588
-0.15141962468624115 -0.293015897274017334 0.206029221415519714
0.0127850119024515152 -0.0450645573437213898 0.207229331135749817
0.0123002035543322563 -0.100321680307388306 0.207322806119918823
-0.15141962468624115 -0.0664063394069671631 0.207558318972587585
-0.0313294194638729095 0.346458613872528076 0.209958136081695557
-0.15141962468624115 0.0621318109333515167 0.21005934476852417
-0.15141962468624115 -0.24075491726398468 0.210228055715560913
-0.15141962468624115 -0.186359003186225891 0.210428938269615173
-0.15141962468624115 -0.275625169277191162 0.210775017738342285
-0.15141962468624115 -0.151215597987174988 0.210796937346458435
-0.15141962468624115 -0.0516503900289535522 0.211040511727333069
0.0182197690010070801 -0.312567412853240967 0.211164727807044983
-0.123637117445468903 -0.347987115383148193 0.21138356626033783
0.0119370156899094582 -0.164459303021430969 0.211390569806098938
-0.0195574630051851273 -0.340118885040283203 0.211531266570091248
-0.0413881801068782806 -0.347987115383148193 0.211555019021034241
-0.0950742214918136597 -0.347987115383148193 0.212145492434501648
-0.15141962468624115 -0.0153422290459275246 0.212901756167411804
-0.151367902755737305 -0.340303599834442139 0.212907761335372925
-0.15141962468624115 -0.224103689193725586 0.213106885552406311
0.0128988781943917274 0.0795158669352531433 0.213455751538276672
0.0039706001989543438 -0.271400690078735352 0.213749751448631287
0.00729766441509127617 -0.335803389549255371 0.213901564478874207
0.0124292410910129547 -0.113431990146636963 0.214338496327400208
-0.15141962468624115 0.24400155246257782 0.214776709675788879
-0.0790866389870643616 -0.347987115383148193 0.214847400784492493
0.0128988781943917274 -0.00230235327035188675 0.214854836463928223
-0.15141962468624115 0.0384305939078330994 0.214865654706954956
0.0128988781943917274 0.134902983903884888 0.214982554316520691
0.00286246277391910553 -0.275423586368560791 0.215284988284111023
-0.15141962468624115 0.016115942969918251 0.21532207727432251
-0.15141962468624115 -0.101312942802906036 0.215507790446281433
-0.15141962468624115 -0.295571208000183105 0.215724378824234009
0.0181587077677249908 -0.321503758430480957 0.215926915407180786
-0.15141962468624115 0.0296000130474567413 0.216233864426612854
-0.0152326337993144989 -0.33822709321975708 0.217468187212944031
0.0125225149095058441 -0.117275036871433258 0.217979326844215393
-0.139116600155830383 0.347425103187561035 0.218363076448440552
-0.0552019625902175903 0.34775388240814209 0.218441158533096313
0.0122863035649061203 -0.152780026197433472 0.218526363372802734
0.0120919859036803246 -0.186563611030578613 0.219351664185523987
0.0128988781943917274 0.184525296092033386 0.219436168670654297
-0.15141962468624115 0.119357742369174957 0.219732344150543213
-0.127809107303619385 -0.347987115383148193 0.220316946506500244
0.0125547777861356735 -0.12775188684463501 0.221282199025154114
-0.15141962468624115 0.0389893464744091034 0.222617089748382568
0.0127552580088376999 -0.109826073050498962 0.222646817564964294
0.0128988977521657944 0.0399552471935749054 0.223129570484161377
-0.15141962468624115 0.289604783058166504 0.223142966628074646
0.014718940481543541 0.332160711288452148 0.223152130842208862
-0.151103809475898743 -0.343178212642669678 0.223792508244514465
0.0104061523452401161 0.26172947883605957 0.224020674824714661
-0.15141962468624115 0.238871321082115173 0.224146082997322083
0.0106413019821047783 0.261076927185058594 0.224208936095237732
-0.15141962468624115 0.089063495397567749 0.224622666835784912
0.0128989787772297859 0.242111191153526306 0.224688887596130371
0.0082993432879447937 0.295962214469909668 0.22504580020904541
-0.133252426981925964 -0.347987115383148193 0.225240051746368408
-0.15141962468624115 0.197848051786422729 0.225493475794792175
-0.15141962468624115 0.293184876441955566 0.225496828556060791
0.0128498831763863564 0.246777623891830444 0.22588859498500824
-0.15141962468624115 0.0461999736726284027 0.226376146078109741
0.0128989610821008682 0.238761454820632935 0.22664216160774231
0.0128989452496170998 0.00482263462617993355 0.226815730333328247
0.0127193275839090347 -0.333098471164703369 0.226966828107833862
0.0122777940705418587 -0.232132256031036377 0.227966472506523132
0.0128989657387137413 0.0897723957896232605 0.228458181023597717
-0.15141962468624115 0.178448989987373352 0.229337006807327271
-0.15141962468624115 -0.0376415103673934937 0.229359731078147888
