ply
format ascii 1.0
element vertex 713
property float x
property float y
property float z
end_header
-0.0268899723887443542 0.0704368874430656433 -0.0534023009240627289
0.0875538811087608337 0.0715050399303436279 -0.0534023009240627289
-0.0805328488349914551 0.0723046660423278809 -0.0534023009240627289
0.0335141792893409729 0.0735282823443412781 -0.0534023009240627289
0.100242756307125092 0.0745047926902770996 -0.0534023009240627289
0.0310349017381668091 0.0771953612565994263 -0.0534023009240627289
0.077511616051197052 0.0843327194452285767 -0.0534023009240627289
-0.0552818179130554199 0.0850069448351860046 -0.0534023009240627289
0.1082148477435112 0.0851423665881156921 -0.0534023009240627289
0.0729085057973861694 0.0866678208112716675 -0.0534023009240627289
-0.0491811633110046387 0.0899210572242736816 -0.0534023009240627289
-0.0829854831099510193 0.0904229432344436646 -0.0534023009240627289
0.101208560168743134 0.0905230790376663208 -0.0534023009240627289
0.00526218628510832787 0.0953316912055015564 -0.0534023009240627289
-0.0643765479326248169 0.0971095934510231018 -0.0534023009240627289
0.10658138245344162 0.0975441858172416687 -0.0534023009240627289
-0.00272317929193377495 0.103383421897888184 -0.0534023009240627289
0.0925370752811431885 0.108152709901332855 -0.0534023009240627289
0.041545376181602478 0.108266174793243408 -0.0534023009240627289
-0.030797107145190239 0.108667761087417603 -0.0534023009240627289
-0.0113961221650242805 0.11049778014421463 -0.0534023009240627289
0.0501750223338603973 0.111338332295417786 -0.0534023009240627289
0.0221966058015823364 0.113505221903324127 -0.0534023009240627289
-0.0880935639142990112 0.114392086863517761 -0.0534023009240627289
-0.0125157525762915611 0.116873361170291901 -0.0534023009240627289
0.0749847292900085449 0.117600634694099426 -0.0534023009240627289
-0.0163669846951961517 0.118114806711673737 -0.0534023009240627289
0.0489383749663829803 0.11818309873342514 -0.0534023009240627289
-0.0947578698396682739 0.122982598841190338 -0.0534023009240627289
0.0695087462663650513 0.123020932078361511 -0.0534023009240627289
-0.0704482719302177429 0.123212389647960663 -0.0534023009240627289
-0.0224587880074977875 0.126242831349372864 -0.0534023009240627289
-0.0468832813203334808 0.129966035485267639 -0.0534023009240627289
0.107920825481414795 0.136570334434509277 -0.0534023009240627289
0.0590585023164749146 0.138792693614959717 -0.0534023009240627289
-0.0823793187737464905 0.139126941561698914 -0.0534023009240627289
-0.0305321887135505676 0.146102726459503174 -0.0534023009240627289
-0.0185832604765892029 0.148924410343170166 -0.0534023009240627289
0.017406923696398735 0.149646684527397156 -0.0534023009240627289
-0.0989295244216918945 0.150501713156700134 -0.0534023009240627289
0.0843709856271743774 0.154103994369506836 -0.0534023009240627289
0.019282657653093338 0.155783191323280334 -0.0534023009240627289
0.0224705971777439117 0.15970158576965332 -0.0534023009240627289
0.098463013768196106 0.160129517316818237 -0.0534023009240627289
0.0850040242075920105 0.167780116200447083 -0.0534023009240627289
-0.074757501482963562 0.170331060886383057 -0.0534023009240627289
-0.0101883634924888611 0.173943206667900085 -0.0534023009240627289
0.0705818086862564087 0.174863666296005249 -0.0534023009240627289
0.00738940713927149773 0.176065072417259216 -0.0534023009240627289
-0.0353664420545101166 0.17700156569480896 -0.0534023009240627289
0.0287300944328308105 0.179602757096290588 -0.0534023009240627289
-0.0852119103074073792 0.182378098368644714 -0.0534023009240627289
-0.00325440592132508755 0.182549059391021729 -0.0534023009240627289
-0.068432934582233429 0.185234323143959045 -0.0534023009240627289
0.0791436955332756042 0.185809329152107239 -0.0534023009240627289
0.00390563532710075378 0.192574247717857361 -0.0534023009240627289
-0.0842716097831726074 0.197887107729911804 -0.0534023009240627289
-0.0158895887434482574 0.20097997784614563 -0.0534023009240627289
0.0492667332291603088 0.201270684599876404 -0.0534023009240627289
0.000968448584899306297 0.203113541007041931 -0.0534023009240627289
-0.0608939677476882935 0.205906018614768982 -0.0534023009240627289
0.00991276651620864868 0.205906465649604797 -0.0534023009240627289
-0.103627420961856842 0.209044039249420166 -0.0534023009240627289
0.0954147949814796448 0.215052470564842224 -0.0534023009240627289
0.0917600616812705994 0.215885311365127563 -0.0534023009240627289
0.0531570948660373688 0.215890809893608093 -0.0534023009240627289
0.0261620935052633286 0.217207491397857666 -0.0534023009240627289
-0.0979189872741699219 0.217462092638015747 -0.0534023009240627289
0.0420054346323013306 0.218088984489440918 -0.0534023009240627289
0.086971282958984375 0.218784436583518982 -0.0534023009240627289
-0.112743906676769257 0.220047652721405029 -0.0534023009240627289
0.00295238685794174671 0.22153046727180481 -0.0534023009240627289
0.00955010857433080673 0.223296761512756348 -0.0534023009240627289
-0.106211692094802856 0.223313868045806885 -0.0534023009240627289
0.000136395145091228187 0.22448652982711792 -0.0534023009240627289
-0.0583626814186573029 0.229682177305221558 -0.0534023009240627289
-0.0787192285060882568 0.23046506941318512 -0.0534023009240627289
0.0100310510024428368 0.233734041452407837 -0.0534023009240627289
0.0541727431118488312 0.234016880393028259 -0.0534023009240627289
-0.0680543631315231323 0.2369498610496521 -0.0534023009240627289
-0.0171161554753780365 0.238006412982940674 -0.0534023009240627289
0.0530871190130710602 0.242235124111175537 -0.0534023009240627289
-0.104946181178092957 0.243121355772018433 -0.0534023009240627289
0.109575420618057251 0.245125964283943176 -0.0534023009240627289
0.0417512319982051849 0.246665552258491516 -0.0534023009240627289
-0.00283413706347346306 0.246848434209823608 -0.0534023009240627289
0.076401151716709137 0.247943058609962463 -0.0534023009240627289
0.10912642627954483 0.25535207986831665 -0.0534023009240627289
-0.020203636959195137 0.256094872951507568 -0.0534023009240627289
0.0161551386117935181 0.257750660181045532 -0.0534023009240627289
0.0344168096780776978 0.258697330951690674 -0.0534023009240627289
-0.021562773734331131 0.259616971015930176 -0.0534023009240627289
0.0623947605490684509 0.260953336954116821 -0.0534023009240627289
-0.026488402858376503 0.26512378454208374 -0.0534023009240627289
0.0866384729743003845 0.267103105783462524 -0.0534023009240627289
0.0404820255935192108 0.268382102251052856 -0.0534023009240627289
-0.0320511385798454285 0.277418553829193115 -0.0534023009240627289
-0.0958864539861679077 0.280181974172592163 -0.0534023009240627289
-0.0118378177285194397 0.280595839023590088 -0.0534023009240627289
0.0851721540093421936 0.282118141651153564 -0.0534023009240627289
0.0745065063238143921 0.282544553279876709 -0.0534023009240627289
0.0340879037976264954 0.283237308263778687 -0.0534023009240627289
-0.0256724562495946884 0.283868670463562012 -0.0534023009240627289
-0.0202079582959413528 0.284267216920852661 -0.0534023009240627289
0.0132711213082075119 0.285475671291351318 -0.0534023009240627289
0.0104602454230189323 0.285993486642837524 -0.0534023009240627289
-0.0370813198387622833 0.287599086761474609 -0.0534023009240627289
0.000554872036445885897 0.28799322247505188 -0.0534023009240627289
-0.0456536710262298584 0.289971500635147095 -0.0534023009240627289
-0.0649324581027030945 0.296607077121734619 -0.0534023009240627289
0.0743872150778770447 0.29841950535774231 -0.0534023009240627289
-0.106812886893749237 0.298466473817825317 -0.0534023009240627289
-0.0741550177335739136 0.300095111131668091 -0.0534023009240627289
0.0102665303274989128 0.300512403249740601 -0.0534023009240627289
-0.108397454023361206 0.301015496253967285 -0.0534023009240627289
0.00736063066869974136 0.305767714977264404 -0.0534023009240627289
0.00519627286121249199 0.306416600942611694 -0.0534023009240627289
0.0688128545880317688 0.306841284036636353 -0.0534023009240627289
0.0387594848871231079 0.30720248818397522 -0.0534023009240627289
-0.0525631420314311981 0.30722615122795105 -0.0534023009240627289
0.00365904229693114758 0.309509873390197754 -0.0534023009240627289
0.0374464504420757294 0.309873342514038086 -0.0534023009240627289
0.0764170289039611816 0.311301201581954956 -0.0534023009240627289
0.0667831972241401672 0.31154710054397583 -0.0534023009240627289
0.0437984131276607513 0.316642582416534424 -0.0534023009240627289
-0.0259681586176156998 0.316932141780853271 -0.0534023009240627289
-0.100169144570827484 0.319991141557693481 -0.0534023009240627289
-0.0245694853365421295 0.320157825946807861 -0.0534023009240627289
-0.0498640760779380798 0.327282100915908813 -0.0534023009240627289
-0.0336192771792411804 0.328932464122772217 -0.0534023009240627289
0.094468042254447937 0.329206168651580811 -0.0534023009240627289
0.106648705899715424 0.332193702459335327 -0.0534023009240627289
-0.071166306734085083 0.333651930093765259 -0.0534023009240627289
-0.0288418233394622803 0.334141463041305542 -0.0534023009240627289
0.0290864072740077972 0.334870487451553345 -0.0534023009240627289
0.0435521528124809265 0.335385560989379883 -0.0534023009240627289
0.0524609945714473724 0.335939198732376099 -0.0534023009240627289
0.0874571129679679871 0.336154937744140625 -0.0534023009240627289
0.0940640866756439209 0.340438663959503174 -0.0534023009240627289
-0.102836497128009796 0.34122273325920105 -0.0534023009240627289
0.0272085908800363541 0.342790961265563965 -0.0534023009240627289
-0.0709675848484039307 0.345353156328201294 -0.0534023009240627289
0.0912843123078346252 0.349507838487625122 -0.0534023009240627289
0.0228338371962308884 0.354199618101119995 -0.0534023009240627289
-0.0859739184379577637 0.355700314044952393 -0.0534023009240627289
0.050393328070640564 0.358235657215118408 -0.0534023009240627289
-0.0292412471026182175 0.358587175607681274 -0.0534023009240627289
0.0874300599098205566 0.358905583620071411 -0.0534023009240627289
-0.0275284647941589355 0.363057464361190796 -0.0534023009240627289
0.0687748044729232788 0.363100349903106689 -0.0534023009240627289
0.113965362310409546 0.365459650754928589 -0.0534023009240627289
0.0899967178702354431 0.367283999919891357 -0.0534023009240627289
0.0588057674467563629 0.369844526052474976 -0.0534023009240627289
-0.0434004627168178558 0.372255504131317139 -0.0534023009240627289
-0.113825172185897827 0.372825384140014648 -0.0534023009240627289
-0.0801229476928710938 0.375775277614593506 -0.0534023009240627289
0.08412904292345047 0.37670329213142395 -0.0534023009240627289
0.0894246473908424377 0.377899885177612305 -0.0534023009240627289
-0.0439159274101257324 0.38527187705039978 -0.0534023009240627289
-0.0365843623876571655 0.38669431209564209 -0.0534023009240627289
-0.063601762056350708 0.387795060873031616 -0.0534023009240627289
-0.0401999093592166901 0.38880997896194458 -0.0534023009240627289
-0.074770018458366394 0.38903316855430603 -0.0534023009240627289
-0.00539603130891919136 0.396166503429412842 -0.0534023009240627289
0.0260250139981508255 0.397036820650100708 -0.0534023009240627289
0.0408846698701381683 0.39879840612411499 -0.0534023009240627289
-0.0952933952212333679 0.402007311582565308 -0.0534023009240627289
-0.0759051591157913208 0.404672741889953613 -0.0534023009240627289
-0.113307155668735504 0.405106604099273682 -0.0534023009240627289
0.0282111447304487228 0.40575072169303894 -0.0534023009240627289
0.0624195970594882965 0.413324326276779175 -0.0534023009240627289
-0.0738022848963737488 0.41839173436164856 -0.0534023009240627289
0.0304535049945116043 0.419704198837280273 -0.0534023009240627289
0.10169113427400589 0.42277875542640686 -0.0534023009240627289
-0.0256112851202487946 0.423589169979095459 -0.0534023009240627289
0.042591538280248642 0.423876285552978516 -0.0534023009240627289
0.0749325379729270935 0.425413310527801514 -0.0534023009240627289
-0.0712884962558746338 0.426824450492858887 -0.0534023009240627289
0.0827065929770469666 0.427210092544555664 -0.0534023009240627289
0.0222302824258804321 0.433277547359466553 -0.0534023009240627289
0.0879502221941947937 0.435898572206497192 -0.0534023009240627289
-0.000762285024393349886 0.436820626258850098 -0.0534023009240627289
-0.0947559624910354614 0.437797993421554565 -0.0534023009240627289
-0.113577328622341156 0.439565390348434448 -0.0534023009240627289
0.0328586399555206299 0.441010534763336182 -0.0534023009240627289
-0.0760280713438987732 0.444576382637023926 -0.0534023009240627289
-0.0201265141367912292 0.445416301488876343 -0.0534023009240627289
0.0922729447484016418 0.44584229588508606 -0.0534023009240627289
0.0178962685167789459 0.445870101451873779 -0.0534023009240627289
-0.0414207391440868378 0.449003934860229492 -0.0534023009240627289
0.0446039587259292603 0.451314747333526611 -0.0534023009240627289
0.114303894340991974 0.340453833341598511 -0.053402293473482132
0.11512746661901474 0.219741702079772949 -0.0534022785723209381
0.115103870630264282 0.31661689281463623 -0.0534022785723209381
0.11572553962469101 -0.188150107860565186 -0.0534022673964500427
0.116145394742488861 0.298348695039749146 -0.0534022562205791473
0.117788098752498627 -0.130425572395324707 -0.0534022264182567596
0.118167795240879059 -0.405301421880722046 -0.0534022189676761627
0.118074081838130951 0.149592384696006775 -0.0534022189676761627
0.118447199463844299 0.120322659611701965 -0.0534022115170955658
-0.115476168692111969 -0.131112337112426758 -0.053401995450258255
-0.115752652287483215 -0.246275946497917175 -0.0534019432961940765
-0.116679802536964417 0.1341886967420578 -0.0534017607569694519
-0.117218509316444397 0.236258670687675476 -0.053401656448841095
-0.117351725697517395 0.217688694596290588 -0.0534016303718090057
-0.118036389350891113 0.386964529752731323 -0.0534014962613582611
-0.118299789726734161 -0.169763818383216858 -0.0534014478325843811
-0.118465796113014221 0.176177754998207092 -0.0534014143049716949
-0.118660509586334229 0.170294985175132751 -0.0534013770520687103
0.119294106960296631 0.324847400188446045 -0.0533883236348628998
-0.119542501866817474 0.357089638710021973 -0.0533858016133308411
-0.0806898251175880432 0.457610189914703369 -0.0533811450004577637
-0.119700975716114044 0.031739894300699234 -0.0533806942403316498
0.119453504681587219 0.379435062408447266 -0.0533780865371227264
-0.120241962373256683 -0.0885574221611022949 -0.0533632449805736542
0.121685989201068878 0.449866592884063721 -0.0533543340861797333
-0.111531153321266174 0.460257440805435181 -0.0533529557287693024
0.119721606373786926 0.140669986605644226 -0.0533484593033790588
-0.120785392820835114 0.0483181774616241455 -0.0533457212150096893
-0.120815403759479523 0.290838509798049927 -0.0533447526395320892
-0.120898537337779999 -0.059083402156829834 -0.0533420704305171967
-0.120960786938667297 -0.35913434624671936 -0.0533400662243366241
0.120090186595916748 0.365610986948013306 -0.0533371977508068085
-0.121297910809516907 0.411182194948196411 -0.0533291921019554138
-0.121368907392024994 -0.213130265474319458 -0.0533269010484218597
-0.121583856642246246 -0.0919247493147850037 -0.0533199720084667206
-0.121640555560588837 0.139671072363853455 -0.0533181428909301758
0.120328523218631744 -0.151118248701095581 -0.0532977767288684845
-0.122362248599529266 -0.143240854144096375 -0.0532948672771453857
0.120785608887672424 0.406909942626953125 -0.0532925352454185486
0.120545096695423126 0.117274478077888489 -0.0532796941697597504
-0.122985966503620148 -0.0634745731949806213 -0.0532747544348239899
-0.123023204505443573 -0.00839788652956485748 -0.0532735548913478851
0.120625168085098267 -0.133188426494598389 -0.0532730072736740112
0.120730981230735779 -0.357340842485427856 -0.0532641708850860596
0.0490403175354003906 0.461701273918151855 -0.0531814321875572205
-0.009731256403028965 -0.460904598236083984 -0.0531613752245903015
0.122020930051803589 -0.288719534873962402 -0.0531564578413963318
-0.123393706977367401 -0.106206618249416351 -0.0531391538679599762
0.123332805931568146 0.417869687080383301 -0.0531295724213123322
0.122587330639362335 -0.379881680011749268 -0.0531091615557670593
0.122673235833644867 0.0694436877965927124 -0.0531019866466522217
0.122780077159404755 -0.230154663324356079 -0.0530930645763874054
-0.123556956648826599 0.0614310577511787415 -0.0530792288482189178
-0.123563244938850403 -0.0652924403548240662 -0.0530769191682338715
-0.123581178486347198 -0.344409346580505371 -0.0530703365802764893
-0.0973194986581802368 -0.461542695760726929 -0.0530580915510654449
-0.123694755136966705 -0.415923446416854858 -0.0530286431312561035
0.0637826547026634216 -0.461726188659667969 -0.0530283898115158081
0.123581118881702423 -0.458485722541809082 -0.0530047155916690826
0.123567119240760803 -0.235755845904350281 -0.0529860779643058777
-0.0386052355170249939 0.462575048208236694 -0.0529667511582374573
-0.123879022896289825 -0.0627416148781776428 -0.0529609993100166321
0.123726241290569305 -0.210866004228591919 -0.0529479272663593292
0.116400353610515594 -0.462382674217224121 -0.0529220663011074066
0.0824776217341423035 -0.462491333484649658 -0.0529045388102531433
0.123932488262653351 -0.125032007694244385 -0.0528984777629375458
-0.0930614173412322998 0.46310502290725708 -0.0528690703213214874
-0.0266547258943319321 0.46314886212348938 -0.0528609864413738251
0.125204980373382568 0.28988724946975708 -0.0528277121484279633
0.124244511127471924 0.136306792497634888 -0.0528236664831638336
0.124324195086956024 0.245668932795524597 -0.0528048314154148102
0.124350778758525848 0.141790688037872314 -0.0527981892228126526
-0.124335765838623047 0.164588138461112976 -0.0527933388948440552
0.124468199908733368 -0.370563268661499023 -0.0527700372040271759
0.058467518538236618 -0.463377684354782104 -0.0527610667049884796
-0.124461531639099121 -0.385609090328216553 -0.0527471713721752167
-0.0739319100975990295 0.463601350784301758 -0.0526838228106498718
0.124860651791095734 -0.0671860054135322571 -0.0526759438216686249
-0.124718144536018372 0.175954192876815796 -0.0526529736816883087
0.126239508390426636 -0.462934404611587524 -0.0524701885879039764
-0.0386209748685359955 -0.464232057332992554 -0.0524008683860301971
-0.0346863269805908203 -0.46424102783203125 -0.0523885414004325867
0.126264050602912903 -0.105295546352863312 -0.0523394681513309479
-0.121660403907299042 -0.464245259761810303 -0.0523375757038593292
-0.125719413161277771 0.0972159504890441895 -0.0522854253649711609
0.126460254192352295 -0.0674778446555137634 -0.052274119108915329
-0.12578919529914856 0.353073179721832275 -0.0522160753607749939
0.126558199524879456 0.239442676305770874 -0.0521970950067043304
-0.125851348042488098 -0.295663237571716309 -0.0521330945193767548
-0.125530540943145752 0.463049829006195068 -0.0520910024642944336
-0.125946581363677979 0.208664685487747192 -0.0520059801638126373
0.126958295702934265 -0.137923941016197205 -0.051880665123462677
0.127907902002334595 0.352966845035552979 -0.0518683977425098419
0.127020925283432007 -0.275421351194381714 -0.0518311858177185059
0.128142669796943665 0.344830751419067383 -0.0517250597476959229
-0.0884003490209579468 0.46416202187538147 -0.0517238788306713104
-0.126202300190925598 0.437010735273361206 -0.0516646280884742737
-0.126249924302101135 0.287755221128463745 -0.0516010597348213196
-0.12628975510597229 0.397814542055130005 -0.0515478737652301788
-0.126403883099555969 -0.0810311660170555115 -0.0513955429196357727
0.127699136734008789 0.00882013607770204544 -0.0512953922152519226
0.082564525306224823 -0.465067684650421143 -0.0512525662779808044
0.127987131476402283 -0.0767171978950500488 -0.0510678626596927643
0.127999097108840942 0.2452840656042099 -0.0510628297924995422
0.128016099333763123 -0.190503016114234924 -0.0510449856519699097
-0.097117990255355835 0.464628607034683228 -0.0509250424802303314
-0.126841709017753601 -0.4507102370262146 -0.0508111082017421722
0.128362298011779785 0.0256608333438634872 -0.0507714785635471344
-0.0717187002301216125 -0.465468227863311768 -0.0507021322846412659
0.128455176949501038 -0.267495572566986084 -0.0506886877119541168
-0.126953169703483582 -0.39630088210105896 -0.0506623014807701111
-0.126964792609214783 0.216323673725128174 -0.0506467781960964203
-0.127031296491622925 -0.13286648690700531 -0.0505580231547355652
-0.127131551504135132 -0.0615071505308151245 -0.050424184650182724
0.128700301051139832 -0.179925635457038879 -0.0504033006727695465
0.128784939646720886 0.204945608973503113 -0.0503872297704219818
-0.127202197909355164 -0.411733388900756836 -0.0503298863768577576
-0.12727704644203186 -0.43768310546875 -0.0502299591898918152
0.13038673996925354 0.452216625213623047 -0.0501563511788845062
0.130069524049758911 0.342797219753265381 -0.0501413457095623016
-0.127297207713127136 0.460350394248962402 -0.0501244403421878815
-0.127385154366493225 -0.336910396814346313 -0.0500856488943099976
0.129019230604171753 0.0662950873374938965 -0.0500319786369800568
-0.12743552029132843 -0.40743979811668396 -0.0500126555562019348
-0.127465471625328064 -0.279451817274093628 -0.0499576851725578308
0.129222765564918518 -0.250424116849899292 -0.0497950203716754913
-0.126394689083099365 -0.463906913995742798 -0.049368683248758316
-0.127846106886863708 -0.310365587472915649 -0.0492589734494686127
-0.127854868769645691 -0.142213419079780579 -0.0492428876459598541
0.130060881376266479 0.172048076987266541 -0.0491861216723918915
-0.127914309501647949 -0.268872380256652832 -0.0491337701678276062
0.130125284194946289 0.0985351577401161194 -0.0489495955407619476
0.130382552742958069 0.25212135910987854 -0.0488834455609321594
0.130555376410484314 0.104203708469867706 -0.0487201772630214691
0.130467861890792847 -0.119202248752117157 -0.0483398512005805969
-0.0955978929996490479 -0.465741187334060669 -0.048193909227848053
0.130618080496788025 -0.345726698637008667 -0.0481297895312309265
0.0214580800384283066 0.465663313865661621 -0.0480897463858127594
0.130727574229240417 -0.33762437105178833 -0.0479768067598342896
-0.128562897443771362 -0.366206198930740356 -0.0479432046413421631
0.130783513188362122 0.0341829955577850342 -0.0478986017405986786
0.131321802735328674 0.116813540458679199 -0.0478729717433452606
0.130928277969360352 0.0501661412417888641 -0.0476959533989429474
0.131042778491973877 -0.1616554856300354 -0.0475361831486225128
-0.128856316208839417 0.328920125961303711 -0.0474046133458614349
-0.128883510828018188 -0.323127985000610352 -0.0473546981811523438
0.131175503134727478 -0.376365095376968384 -0.047350909560918808
-0.12856726348400116 -0.462402939796447754 -0.0472913682460784912
0.131835043430328369 0.192298814654350281 -0.0472854413092136383
-0.128980740904808044 -0.348135620355606079 -0.047176215797662735
0.131654441356658936 -0.278101056814193726 -0.0466805286705493927
-0.129250615835189819 0.339305460453033447 -0.0466781258583068848
-0.129414647817611694 -0.25126957893371582 -0.0463752821087837219
0.132646694779396057 0.212808966636657715 -0.0463563911616802216
0.132677033543586731 0.150727882981300354 -0.046320449560880661
0.131956189870834351 -0.116344444453716278 -0.0462594926357269287
-0.0872989967465400696 -0.46577000617980957 -0.0460130274295806885
-0.12961462140083313 0.428939938545227051 -0.0460060909390449524
0.0992935597896575928 0.465064376592636108 -0.0460032075643539429
-0.0524312779307365417 0.464767128229141235 -0.0459084250032901764
0.132359176874160767 -0.0403838753700256348 -0.0458994731307029724
-0.129767924547195435 -0.398458033800125122 -0.04572305828332901
-0.129812613129615784 0.162377089262008667 -0.0456405468285083771
0.0277826730161905289 -0.46577000617980957 -0.0456389673054218292
0.132408052682876587 -0.145452499389648438 -0.0456276796758174896
0.0844650790095329285 -0.46577000617980957 -0.045567486435174942
-0.129894793033599854 -0.354301691055297852 -0.0454888157546520233
-0.129921332001686096 -0.231470212340354919 -0.0454398319125175476
-0.129925310611724854 0.200894355773925781 -0.0454324856400489807
-0.130047127604484558 0.232395589351654053 -0.0452075712382793427
-0.130049094557762146 -0.331457674503326416 -0.0452039390802383423
0.133866488933563232 0.237268939614295959 -0.0449317805469036102
-0.130245089530944824 -0.162615418434143066 -0.044842105358839035
-0.129326894879341125 0.463135838508605957 -0.0445848293602466583
0.133301690220832825 -0.219275802373886108 -0.0445725098252296448
-0.130417197942733765 -0.134881004691123962 -0.0445243529975414276
0.133373990654945374 -0.0749495998024940491 -0.0444830209016799927
0.133425503969192505 -0.379269003868103027 -0.0442046374082565308
-0.130602240562438965 0.125417217612266541 -0.0441827066242694855
-0.130664333701133728 0.190754234790802002 -0.0440680831670761108
-0.13067471981048584 -0.0572486333549022675 -0.0440489016473293304
0.132382944226264954 0.464561432600021362 -0.0440339073538780212
-0.130738496780395508 -0.216941013932228088 -0.0439311489462852478
-0.128612905740737915 0.464200079441070557 -0.0439234301447868347
-0.130840316414833069 -0.193475320935249329 -0.0437430776655673981
-0.130890771746635437 -0.14262823760509491 -0.0436496585607528687
-0.131096765398979187 -0.00182333833072334528 -0.043268248438835144
0.134382426738739014 0.0340152084827423096 -0.0431583896279335022
0.135528489947319031 0.154763892292976379 -0.0429624281823635101
0.134763166308403015 -0.0185981541872024536 -0.0428457483649253845
0.134876266121864319 -0.0254264585673809052 -0.0427124090492725372
0.00976163893938064575 -0.46577000617980957 -0.0423961691558361053
0.135015636682510376 -0.362132132053375244 -0.0423020869493484497
-0.131632044911384583 0.0624722875654697418 -0.0422771312296390533
0.0823487937450408936 -0.46577000617980957 -0.0418406017124652863
0.135708272457122803 -0.367965340614318848 -0.0414812378585338593
0.135756745934486389 -0.388625979423522949 -0.0414607636630535126
-0.132075130939483643 -0.0915928706526756287 -0.0414567068219184875
0.13579694926738739 -0.062610134482383728 -0.0414402298629283905
-0.132156968116760254 -0.0798387080430984497 -0.0413051806390285492
-0.132167831063270569 0.266821563243865967 -0.0412850454449653625
-0.0433104448020458221 -0.46577000617980957 -0.0410663411021232605
0.13621462881565094 -0.434792101383209229 -0.0410322658717632294
0.136466085910797119 -0.45406949520111084 -0.0409704446792602539
0.136344820261001587 -0.448227912187576294 -0.04097028449177742
0.12574411928653717 0.464767694473266602 -0.0409367792308330536
0.136489823460578918 -0.17368769645690918 -0.0408384650945663452
-0.132512018084526062 -0.0596118904650211334 -0.0406477563083171844
0.0654487982392311096 0.465046525001525879 -0.040548231452703476
-0.132704228162765503 0.087030358612537384 -0.0402918718755245209
-0.132855415344238281 -0.42371070384979248 -0.0400119684636592865
-0.00111640396062284708 -0.46577000617980957 -0.0398244857788085938
0.137334227561950684 -0.149482116103172302 -0.0397805608808994293
0.137362644076347351 0.317580699920654297 -0.0396361052989959717
-0.0335826799273490906 -0.46577000617980957 -0.0392772406339645386
0.137932419776916504 -0.194739237427711487 -0.0389973670244216919
0.137954607605934143 -0.152037471532821655 -0.0387146994471549988
0.0555890649557113647 0.464969396591186523 -0.0386642217636108398
-0.0957786515355110168 -0.46577000617980957 -0.0384515039622783661
0.138389408588409424 -0.225021541118621826 -0.0383646562695503235
0.0130790760740637779 -0.46577000617980957 -0.038288850337266922
-0.0760076791048049927 -0.46577000617980957 -0.038135230541229248
0.138384714722633362 0.176560699939727783 -0.0381253995001316071
-0.133871152997016907 -0.458188027143478394 -0.0381159521639347076
0.138193339109420776 -0.0706368088722229004 -0.0379466228187084198
0.0163440331816673279 0.465207099914550781 -0.0378667376935482025
-0.131295040249824524 -0.464482635259628296 -0.0375551469624042511
0.0438488498330116272 -0.46577000617980957 -0.0372374057769775391
0.139124765992164612 -0.0814308077096939087 -0.0367252267897129059
0.139282822608947754 0.0033594637643545866 -0.0365667007863521576
-0.0481174588203430176 0.465088605880737305 -0.0364597998559474945
-0.134904742240905762 -0.414365917444229126 -0.0362187847495079041
-0.134953752160072327 -0.426399320363998413 -0.0361281894147396088
-0.135021254420280457 0.171929150819778442 -0.0360033810138702393
0.125947490334510803 -0.465744137763977051 -0.0358636751770973206
0.140521615743637085 -0.309036672115325928 -0.0357989706099033356
0.139793619513511658 0.145640328526496887 -0.035739559680223465
0.140732645988464355 -0.392167538404464722 -0.0356971584260463715
0.0774291083216667175 -0.465764433145523071 -0.035527493804693222
0.0327505506575107574 -0.465765029191970825 -0.0354437083005905151
0.139968335628509521 -0.0509380362927913666 -0.0354378670454025269
-0.0533274523913860321 0.465163141489028931 -0.0353015363216400146
0.140076622366905212 0.347860187292098999 -0.0352535545825958252
-0.135508641600608826 0.433204382658004761 -0.0351021885871887207
0.107637062668800354 0.464759111404418945 -0.0349465571343898773
0.1410025954246521 -0.196500480175018311 -0.0348632298409938812
-0.135893061757087708 -0.392736077308654785 -0.0343914180994033813
0.140648931264877319 0.0312116909772157669 -0.0342853963375091553
0.141730397939682007 -0.283348053693771362 -0.0342580154538154602
-0.13596893846988678 -0.376644760370254517 -0.0342511087656021118
0.140678003430366516 0.209661349654197693 -0.0342361517250537872
0.140688091516494751 0.31402212381362915 -0.0341242589056491852
0.140847533941268921 0.383758574724197388 -0.0339499637484550476
0.140876635909080505 0.096822492778301239 -0.0338994935154914856
-0.136295750737190247 -0.290771543979644775 -0.0336468406021595001
0.141061276197433472 0.448323994874954224 -0.0335870124399662018
-0.136468946933746338 0.125338375568389893 -0.0333276800811290741
0.141277432441711426 0.108928337693214417 -0.0332211405038833618
0.141295269131660461 0.131787732243537903 -0.0331939272582530975
0.141418367624282837 0.373614460229873657 -0.0330216623842716217
0.142182901501655579 -0.255233824253082275 -0.0329803191125392914
0.0293050855398178101 -0.465756773948669434 -0.0328510664403438568
-0.136739015579223633 0.30410611629486084 -0.0328302457928657532
0.141570791602134705 0.0978899002075195312 -0.0328083634376525879
-0.0289535205811262131 -0.46577000617980957 -0.0325593799352645874
0.141798526048660278 0.162213236093521118 -0.0324896760284900665
0.143070429563522339 -0.387388050556182861 -0.0324319452047348022
0.0507063046097755432 -0.465737789869308472 -0.0321530215442180634
-0.137111887335777283 0.0409505739808082581 -0.0321434587240219116
0.142191514372825623 0.0132190342992544174 -0.031939726322889328
0.0601038001477718353 -0.465734928846359253 -0.0317906811833381653
-0.0539190284907817841 0.465403199195861816 -0.0315692722797393799
0.142682448029518127 0.252319395542144775 -0.0312527194619178772
-0.137656643986701965 0.115603379905223846 -0.0311400741338729858
0.0714636743068695068 -0.465749412775039673 -0.0311122443526983261
0.143275275826454163 -0.248357012867927551 -0.0310866795480251312
-0.137728691101074219 -0.340693950653076172 -0.0310073681175708771
-0.137781083583831787 -0.135730654001235962 -0.0309108570218086243
0.143435746431350708 -0.176550120115280151 -0.0308085177093744278
0.143170356750488281 -0.128591850399971008 -0.0306043550372123718
0.143167510628700256 0.113657116889953613 -0.0305739454925060272
0.144628137350082397 -0.385680973529815674 -0.030447252094745636
0.144738838076591492 -0.37068602442741394 -0.030331810936331749
-0.138206467032432556 0.157112151384353638 -0.0301256310194730759
-0.091466858983039856 0.46516042947769165 -0.0300528127700090408
-0.138294249773025513 -0.169083684682846069 -0.0299631599336862564
-0.138326928019523621 -0.120627596974372864 -0.0299026947468519211
-0.138328641653060913 -0.0188630763441324234 -0.0298995096236467361
0.143867671489715576 -0.145255163311958313 -0.0298928543925285339
0.144767716526985168 -0.341454803943634033 -0.0298242736607789993
0.144104376435279846 0.384251862764358521 -0.0296896174550056458
-0.138486504554748535 -0.246834129095077515 -0.0296073444187641144
0.144373401999473572 0.349674373865127563 -0.0294500682502985001
-0.138673365116119385 -0.0732024013996124268 -0.029261510819196701
-0.125463292002677917 0.465033411979675293 -0.0290264654904603958
0.119355909526348114 0.465787112712860107 -0.0288594942539930344
0.0400722026824951172 -0.466504275798797607 -0.0287822838872671127
-0.00728944549337029457 0.465803176164627075 -0.0285045970231294632
0.145463749766349792 0.313785910606384277 -0.0284792240709066391
0.145470276474952698 0.153330445289611816 -0.0284734033048152924
0.145756259560585022 0.300475716590881348 -0.0282187666743993759
0.14593331515789032 0.432981610298156738 -0.0280611123889684677
-0.13939414918422699 0.243521735072135925 -0.0279275048524141312
0.146837443113327026 0.461347222328186035 -0.0278437994420528412
0.147425010800361633 -0.361710697412490845 -0.0277993455529212952
0.146346628665924072 -0.169632852077484131 -0.0276999268680810928
0.146965906023979187 -0.275094985961914062 -0.0276936125010251999
0.11324106901884079 0.466258347034454346 -0.0276556443423032761
-0.139546915888786316 0.148739591240882874 -0.0276447944343090057
-0.139556124806404114 -0.38596150279045105 -0.0276277512311935425
0.146962031722068787 -0.271195560693740845 -0.0276126991957426071
-0.139599919319152832 -0.430451899766921997 -0.0275466814637184143
0.146746173501014709 0.352532446384429932 -0.0275107100605964661
-0.139623254537582397 -0.146777257323265076 -0.0275034885853528976
0.148277252912521362 -0.40544465184211731 -0.027387518435716629
0.147375434637069702 -0.0365701243281364441 -0.027258431538939476
-0.139830917119979858 0.443208158016204834 -0.0271176677197217941
0.148563951253890991 -0.277863889932632446 -0.0269188806414604187
0.148290172219276428 0.0084265582263469696 -0.0268917009234428406
-0.140103444457054138 0.0270476303994655609 -0.0266144648194313049
-0.140129685401916504 -0.00187071575783193111 -0.0265660658478736877
-0.126977324485778809 0.465135246515274048 -0.0265484694391489029
0.149295449256896973 0.210670903325080872 -0.0264886766672134399
0.149866893887519836 0.23072458803653717 -0.0262595787644386292
0.150762110948562622 -0.430977851152420044 -0.0262276548892259598
0.150027558207511902 -0.226224526762962341 -0.026195162907242775
0.150640681385993958 0.0238162893801927567 -0.0260268542915582657
0.151081398129463196 -0.283334106206893921 -0.0259513966739177704
-0.140511766076087952 -0.420046180486679077 -0.0258587170392274857
0.151980891823768616 0.382473856210708618 -0.0258384514600038528
0.152214214205741882 -0.193065494298934937 -0.0258056502789258957
0.153306946158409119 -0.454948961734771729 -0.0257511511445045471
0.154140010476112366 -0.451484203338623047 -0.0255953669548034668
-0.0105699971318244934 0.465878218412399292 -0.0255204364657402039
0.154413670301437378 -0.0716827958822250366 -0.0254964586347341537
0.154508858919143677 0.393454313278198242 -0.0254830792546272278
0.154613658785820007 -0.218759864568710327 -0.0254683457314968109
0.155141636729240417 -0.385294407606124878 -0.0254081059247255325
0.158493980765342712 -0.446620732545852661 -0.02536725252866745
0.156712159514427185 -0.374293893575668335 -0.025358293205499649
0.15542265772819519 -0.179338186979293823 -0.0253546182066202164
0.155568912625312805 0.231386423110961914 -0.0253501012921333313
0.155638039112091064 -0.0110689811408519745 -0.0253491159528493881
0.15585935115814209 -0.0312589071691036224 -0.0253459811210632324
0.156165361404418945 -0.125983059406280518 -0.0253416411578655243
0.157065078616142273 -0.0823836550116539001 -0.025328880175948143
0.157569393515586853 -0.021992294117808342 -0.0253217276185750961
0.157694220542907715 0.278584569692611694 -0.0253199581056833267
0.158016219735145569 -0.346001893281936646 -0.0253153908997774124
0.158137574791908264 -0.180641576647758484 -0.025313669815659523
0.158392101526260376 0.297790735960006714 -0.0253088846802711487
0.159065067768096924 -0.0733366012573242188 -0.025300515815615654
0.159271016716957092 0.0969458594918251038 -0.0252975933253765106
0.159478366374969482 0.242047533392906189 -0.0252946540713310242
0.159485474228858948 -0.136756911873817444 -0.0252945534884929657
-0.140816807746887207 -0.295551955699920654 -0.0252939686179161072
0.160077661275863647 -0.233010083436965942 -0.0251841377466917038
-0.14097905158996582 -0.155965104699134827 -0.0249928422272205353
0.160508587956428528 -0.0695976614952087402 -0.0249510128051042557
0.0203604716807603836 -0.466767162084579468 -0.0249473061412572861
0.160629451274871826 0.015319162979722023 -0.0248856246471405029
-0.141071140766143799 -0.414089083671569824 -0.024823162704706192
-0.141099631786346436 -0.291054219007492065 -0.0247704032808542252
0.160952568054199219 0.280582994222640991 -0.024710826575756073
-0.141150414943695068 -0.378782749176025391 -0.0246761161834001541
0.161086142063140869 -0.224492773413658142 -0.024638565257191658
-0.141216546297073364 -0.307295352220535278 -0.0245530065149068832
0.161323174834251404 0.228056639432907104 -0.0245103314518928528
-0.141265377402305603 0.124394580721855164 -0.0244635660201311111
0.16114458441734314 0.467243403196334839 -0.024461258202791214
-0.0231334269046783447 -0.466449946165084839 -0.0242482032626867294
0.161538705229759216 0.376248538494110107 -0.0242481064051389694
0.161885187029838562 0.169540464878082275 -0.0242062937468290329
0.161976709961891174 -0.116309277713298798 -0.0241567771881818771
0.0275504402816295624 0.466490030288696289 -0.0241237431764602661
0.162063822150230408 -0.237190619111061096 -0.0241096559911966324
0.162353739142417908 -0.0498432032763957977 -0.0239528175443410873
0.162580206990242004 -0.414860367774963379 -0.0238302964717149734
-0.141876906156539917 0.418163895606994629 -0.0234071072190999985
-0.142046675086021423 -0.282952010631561279 -0.0231558959931135178
0.162960007786750793 -0.410799205303192139 -0.0231248978525400162
-0.00477461377158761024 0.466416925191879272 -0.0230520963668823242
0.16310158371925354 -0.163700670003890991 -0.0227096658200025558
-0.142592266201972961 0.270042955875396729 -0.0223508868366479874
-0.122310996055603027 0.4660472571849823 -0.0222666803747415543
-0.142750173807144165 0.196996733546257019 -0.0221178978681564331
-0.142781496047973633 -0.105958156287670135 -0.0220716856420040131
-0.0660374537110328674 0.467201799154281616 -0.0220256112515926361
0.100316159427165985 -0.469675689935684204 -0.0220068246126174927
-0.142881304025650024 0.0970901399850845337 -0.0219244193285703659
-0.14302670955657959 -0.245161473751068115 -0.0217111147940158844
0.163448214530944824 -0.0114388596266508102 -0.0216925125569105148
0.163508564233779907 0.000542219029739499092 -0.0213463883846998215
-0.143345221877098083 0.241262346506118774 -0.0212406590580940247
0.163373038172721863 0.123502157628536224 -0.0211639627814292908
0.16368277370929718 -0.0665683522820472717 -0.021004997193813324
-0.0439924299716949463 -0.467801213264465332 -0.0209143087267875671
-0.143638014793395996 -0.150071278214454651 -0.0208079051226377487
-0.143660292029380798 0.114216819405555725 -0.0207751169800758362
-0.0715853050351142883 0.467818200588226318 -0.0204526465386152267
-0.143951520323753357 -0.195466071367263794 -0.0203452594578266144
0.163559138774871826 0.156780794262886047 -0.0201544146984815598
0.163235574960708618 0.440214961767196655 -0.0199581868946552277
0.0202911682426929474 -0.469188779592514038 -0.0196748487651348114
0.16389833390712738 -0.21497344970703125 -0.0194322969764471054
0.163566157221794128 0.127130046486854553 -0.019343717023730278
-0.14497026801109314 0.0630085468292236328 -0.0192421041429042816
-0.145065829157829285 -0.395879894495010376 -0.0191515665501356125
-0.145137891173362732 -0.429691940546035767 -0.0190832987427711487
-0.145174309611320496 -0.160467490553855896 -0.0190497152507305145
-0.135828480124473572 -0.467646539211273193 -0.0190320350229740143
-0.145195275545120239 -0.384455025196075439 -0.0190289318561553955
0.163903117179870605 -0.0678094103932380676 -0.018877469003200531
-0.0857239589095115662 0.468474537134170532 -0.0187328755855560303
-0.145577520132064819 -0.0825960114598274231 -0.0186669249087572098
-0.145252257585525513 0.457935482263565063 -0.018625352531671524
-0.145871371030807495 0.281255722045898438 -0.0183884501457214355
0.163907691836357117 -0.0509401336312294006 -0.0183472074568271637
-0.14596886932849884 -0.300454795360565186 -0.0182960610836744308
-0.145974636077880859 0.240895003080368042 -0.0182908549904823303
-0.145989000797271729 -0.0995854958891868591 -0.0182769931852817535
-0.0488022789359092712 0.468926727771759033 -0.0181248486042022705
-0.14616018533706665 -0.143238380551338196 -0.018114820122718811
-0.14624534547328949 -0.331156462430953979 -0.0180343594402074814
-0.0502848289906978607 -0.469175279140472412 -0.0180221851915121078
0.163578525185585022 0.168518945574760437 -0.0179164260625839233
0.163913488388061523 -0.250462740659713745 -0.0176762994378805161
0.0632290840148925781 -0.470803231000900269 -0.0175555236637592316
-0.14693431556224823 -0.357793927192687988 -0.0173814333975315094
-0.146955519914627075 -0.351051121950149536 -0.0173613429069519043
-0.147113978862762451 0.353677928447723389 -0.0172245092689990997
-0.147525519132614136 0.226641833782196045 -0.0170724596828222275
-0.147714003920555115 0.0542221888899803162 -0.0170028191059827805
-0.147809699177742004 -0.381327390670776367 -0.01696745865046978
0.163920223712921143 -0.125079512596130371 -0.0168961528688669205
-0.0360888354480266571 0.468980014324188232 -0.0168842673301696777
-0.14848974347114563 -0.065105929970741272 -0.0167162008583545685
0.108091697096824646 -0.470813244581222534 -0.0166725665330886841
-0.148612543940544128 0.0754538625478744507 -0.0166708342730998993
-0.14868512749671936 0.157501563429832458 -0.0166440121829509735
0.132644161581993103 -0.470812201499938965 -0.0166187640279531479
-0.148876607418060303 0.45809406042098999 -0.0165118388831615448
0.0112520400434732437 0.468837201595306396 -0.0164845138788223267
-0.149463847279548645 -0.358450710773468018 -0.0163562986999750137
-0.149572700262069702 -0.178750872611999512 -0.0163160804659128189
-0.149837151169776917 -0.428648233413696289 -0.0162183735519647598
0.162659719586372375 0.469000190496444702 -0.016210334375500679
-0.0982177853584289551 0.469834178686141968 -0.0160876736044883728
-0.150776773691177368 -0.418545246124267578 -0.0158712565898895264
-0.15168936550617218 0.271274298429489136 -0.0157772302627563477
-0.151694819331169128 0.225353971123695374 -0.0157770738005638123
-0.152004435658454895 -0.329833745956420898 -0.0157682336866855621
0.163261577486991882 0.344256699085235596 -0.015767272561788559
-0.1521197110414505 -0.240093976259231567 -0.0157649405300617218
-0.152191236615180969 0.196849510073661804 -0.0157628990709781647
-0.152254149317741394 0.38439449667930603 -0.0157611016184091568
-0.152607828378677368 -0.385232299566268921 -0.0157510023564100266
-0.153017953038215637 -0.391272217035293579 -0.0157392919063568115
-0.153576284646987915 0.247210890054702759 -0.0157233476638793945
-0.153861388564109802 -0.0715896710753440857 -0.015715206041932106
-0.154051065444946289 -0.105518653988838196 -0.0157097913324832916
-0.156396940350532532 -0.123197712004184723 -0.0155876791104674339
-0.157197445631027222 -0.304359406232833862 -0.015523228794336319
0.163598999381065369 0.285286784172058105 -0.0154934972524642944
-0.157800614833831787 0.0282668601721525192 -0.0154746659100055695
-0.158356055617332458 -0.0684983506798744202 -0.015429946593940258
-0.158463910222053528 0.447688579559326172 -0.0154212629422545433
-0.158645197749137878 6.76391500746831298e-05 -0.0154066672548651695
-0.158684596419334412 -0.298235148191452026 -0.0154034942388534546
-0.160088226199150085 0.170807555317878723 -0.0151878669857978821
-0.160198122262954712 -0.192318812012672424 -0.0151197407394647598
-0.160553351044654846 -0.0411028452217578888 -0.0148995192721486092
0.163932129740715027 -0.0655111074447631836 -0.0148561857640743256
-0.160632461309432983 0.385243386030197144 -0.0148504739627242088
-0.160730794072151184 0.380134910345077515 -0.0147895170375704765
0.0291085280478000641 0.470325857400894165 -0.0144934123381972313
-0.113478600978851318 -0.470562934875488281 -0.0144361136481165886
0.163598999381065369 0.132440462708473206 -0.0144153423607349396
-0.161352545022964478 -0.0712052509188652039 -0.0144040631130337715
-0.161397993564605713 0.424247026443481445 -0.014375884085893631
-0.161449521780014038 -0.13101428747177124 -0.0143439397215843201
-0.161471366882324219 0.245472431182861328 -0.0143304048106074333
-0.161667928099632263 -0.0218626726418733597 -0.0142085477709770203
-0.161978811025619507 0.329377144575119019 -0.0140158170834183693
0.163598999381065369 0.225052282214164734 -0.0136278346180915833
-0.162783324718475342 0.361944615840911865 -0.0134631264954805374
0.0678636208176612854 -0.470820993185043335 -0.0133749861270189285
0.163598999381065369 -0.426705747842788696 -0.0133148329332470894
-0.0647644251585006714 -0.470801413059234619 -0.0132602658122777939
-0.162876412272453308 -0.151649191975593567 -0.0131805948913097382
-0.162888452410697937 -0.301105022430419922 -0.013144039548933506
0.163932472467422485 -0.00957485102117061615 -0.0130501734092831612
0.00820690859109163284 0.470010846853256226 -0.013011666014790535
0.163598999381065369 0.262545913457870483 -0.0129083497449755669
0.163932576775550842 0.0271971337497234344 -0.0125321457162499428
-0.163098722696304321 0.283594101667404175 -0.012505820021033287
-0.00508420541882514954 -0.470805972814559937 -0.0122045287862420082
0.163598999381065369 0.151393204927444458 -0.011907380074262619
0.160994574427604675 0.469950199127197266 -0.0117511386051774025
0.16359865665435791 -0.448667466640472412 -0.0117301968857645988
-0.163380756974220276 -0.233268782496452332 -0.0116497799754142761
0.163932770490646362 -0.0182481613010168076 -0.0115171093493700027
0.163932785391807556 -0.096698760986328125 -0.0113956620916724205
-0.163523286581039429 -0.0703184306621551514 -0.0112171899527311325
-0.163596585392951965 -0.319015532732009888 -0.0109947193413972855
-0.11588016152381897 0.470779359340667725 -0.0107013080269098282
0.163930580019950867 -0.142495095729827881 -0.0102941421791911125
-0.16386355459690094 0.169934198260307312 -0.0101843951269984245
0.163603737950325012 0.419360876083374023 -0.0100959222763776779
-0.163897961378097534 -0.0254285279661417007 -0.0099501144140958786
-0.0520137213170528412 0.470820993185043335 -0.00964567624032497406
0.0283675417304039001 -0.470820993185043335 -0.00960851274430751801
-0.163900911808013916 0.35158202052116394 -0.00954719912260770798
-0.163901537656784058 -0.29425811767578125 -0.00946323387324810028
0.163883060216903687 -0.149993494153022766 -0.0092191006988286972
-0.116943642497062683 0.470820993185043335 -0.00894713681191205978
0.163868054747581482 -0.288861334323883057 -0.00887934025377035141
-0.163907632231712341 -0.143686592578887939 -0.00863055232912302017
-0.1639089435338974 -0.19879874587059021 -0.00845094211399555206
0.122421689331531525 0.470686167478561401 -0.00840945355594158173
0.163020595908164978 -0.467909872531890869 -0.00826577376574277878
0.156029462814331055 -0.47069162130355835 -0.00825269334018230438
