ply
format ascii 1.0
element vertex 723
property float x
property float y
property float z
end_header
0.0698965117335319519 -0.187430709600448608 0.0811712890863418579
0.0487921498715877533 -0.01308407261967659 0.0811757519841194153
0.0204831976443529129 0.257094889879226685 0.0812295153737068176
0.0307448990643024445 -0.0463936924934387207 0.0812917724251747131
0.0190688800066709518 0.250914990901947021 0.0813190415501594543
0.0439869984984397888 -0.016497420147061348 0.0815420374274253845
0.0258336849510669708 0.129320621490478516 0.0816418305039405823
0.0248043034225702286 0.110494084656238556 0.0818730965256690979
0.159297123551368713 -0.298114299774169922 0.0820799022912979126
-0.0105802062898874283 0.16377045214176178 0.0823213011026382446
0.0307308342307806015 0.0585250519216060638 0.0823324993252754211
-0.100893609225749969 -0.358263283967971802 0.0823989585041999817
0.040015827864408493 -0.0551813691854476929 0.0826726481318473816
0.0151495514437556267 0.150395706295967102 0.0827001482248306274
-0.195288613438606262 0.282049119472503662 0.0831053629517555237
0.0561883337795734406 -0.252659797668457031 0.0832325965166091919
0.0206064004451036453 -0.052765287458896637 0.0833293348550796509
0.0518208034336566925 -0.183856680989265442 0.0834458023309707642
0.0331752672791481018 0.00615245010703802109 0.0846063792705535889
0.100023135542869568 0.329933375120162964 0.0846997499465942383
0.124391093850135803 -0.332811355590820312 0.0850891917943954468
0.180850699543952942 -0.30672907829284668 0.0852570980787277222
0.035593375563621521 -0.233047127723693848 0.0857360139489173889
-0.159377053380012512 -0.0727220252156257629 0.0858406722545623779
-0.0146589437499642372 0.281735509634017944 0.0861307457089424133
0.106902778148651123 0.338554739952087402 0.0861549153923988342
0.101407617330551147 0.330936074256896973 0.0866678878664970398
0.0348779186606407166 -0.216064885258674622 0.0867216363549232483
0.133951470255851746 -0.331739425659179688 0.086878657341003418
-0.0947363823652267456 -0.357566863298416138 0.0871773064136505127
-0.126867026090621948 -0.324856728315353394 0.0872415974736213684
-0.186915680766105652 0.170973896980285645 0.0873045548796653748
0.0293203648179769516 0.00536099821329116821 0.0874090641736984253
0.0146875753998756409 0.0346853472292423248 0.0874294564127922058
0.0430815741419792175 -0.178103655576705933 0.0877015367150306702
0.0278897657990455627 -0.184277057647705078 0.0878151580691337585
0.093583226203918457 0.328976035118103027 0.0878173708915710449
0.00205991463735699654 0.0593330450356006622 0.0878597870469093323
-0.187732800841331482 0.178202882409095764 0.0878731757402420044
0.0284041743725538254 -0.145721837878227234 0.0879693329334259033
0.0147530529648065567 0.0293667241930961609 0.0880714431405067444
-0.172728240489959717 0.326523452997207642 0.0880803540349006653
0.0444879084825515747 -0.341836273670196533 0.0881857126951217651
0.00810885429382324219 -0.0365851148962974548 0.0881988555192947388
0.00710064917802810669 0.0602839216589927673 0.088444247841835022
0.0157267190515995026 -0.0928137898445129395 0.0886354520916938782
0.0343115031719207764 -0.0542397350072860718 0.0887894034385681152
0.041034262627363205 -0.113276399672031403 0.0889906212687492371
0.0024029857013374567 0.00210223137401044369 0.0892916470766067505
0.0512315481901168823 -0.341076135635375977 0.0898095518350601196
0.0249278433620929718 -0.142230361700057983 0.0900168940424919128
-0.146375611424446106 -0.187863081693649292 0.0904506444931030273
-0.000258998508797958493 0.0163930077105760574 0.0905741006135940552
0.0532740801572799683 -0.247736111283302307 0.0908096209168434143
0.0206759031862020493 -0.0716623365879058838 0.090901106595993042
0.00994572043418884277 0.137964621186256409 0.0910474509000778198
0.0251306388527154922 -0.207948446273803711 0.0917500481009483337
0.00351623282767832279 0.0556107684969902039 0.0918181613087654114
-0.193824067711830139 0.276377081871032715 0.0922417119145393372
-0.165084019303321838 -0.0222609434276819229 0.0924882292747497559
-0.191605031490325928 0.212925925850868225 0.0926657021045684814
0.00969030987471342087 0.0102323750033974648 0.0926790684461593628
-0.0152470953762531281 0.172729223966598511 0.0938209071755409241
-0.003304686164483428 0.0384912118315696716 0.0940046459436416626
-0.152993008494377136 -0.129290550947189331 0.094079136848449707
-0.0209908187389373779 0.286181598901748657 0.094114251434803009
-0.185676679015159607 0.325390934944152832 0.0942327380180358887
0.0248043276369571686 0.0022090256679803133 0.0942380726337432861
0.0258329100906848907 -0.00574453361332416534 0.0945885181427001953
-0.00146693643182516098 0.0176599100232124329 0.0947103053331375122
0.0300091318786144257 -0.0465150028467178345 0.094726957380771637
0.158468976616859436 -0.30127871036529541 0.0951287522912025452
-0.00809371750801801682 0.0728611350059509277 0.0953604727983474731
0.0972293689846992493 0.336581677198410034 0.0955144315958023071
0.0346774943172931671 -0.0811065137386322021 0.0955678224563598633
-0.186700820922851562 0.169073969125747681 0.095623306930065155
-0.00793052930384874344 0.170407950878143311 0.0957171693444252014
0.0404228977859020233 -0.12961772084236145 0.0959306284785270691
-0.0240663141012191772 0.215270832180976868 0.0960204228758811951
-0.145431116223335266 -0.196223974227905273 0.0961027294397354126
0.00839733239263296127 -0.0191981494426727295 0.0962329879403114319
0.013266940601170063 -0.10176500678062439 0.0962552130222320557
0.00638476153835654259 -0.0436661802232265472 0.0963515564799308777
0.0809331163763999939 -0.309955179691314697 0.0965116918087005615
-0.168497800827026367 0.00795637816190719604 0.0967655256390571594
0.0155795961618423462 0.320971250534057617 0.0969137474894523621
0.0656977668404579163 -0.30828326940536499 0.0969667360186576843
-0.124334551393985748 0.331970691680908203 0.0972616374492645264
0.0309028495103120804 -0.273334115743637085 0.0975231528282165527
-0.00836016051471233368 0.105506941676139832 0.0977862700819969177
-0.144970715045928955 -0.200293093919754028 0.0978254303336143494
0.0213522389531135559 0.0193643141537904739 0.0978802517056465149
0.00731604872271418571 -0.0357992984354496002 0.0982678532600402832
0.0396363995969295502 0.323697000741958618 0.0982886850833892822
0.0819534137845039368 0.35536840558052063 0.0983624681830406189
0.0330753885209560394 -0.0771569386124610901 0.098734438419342041
0.00984469335526227951 0.0253214891999959946 0.0990920513868331909
-0.0324441753327846527 0.343126863241195679 0.0994217917323112488
-0.142350956797599792 -0.222950354218482971 0.0996009483933448792
0.0437568537890911102 -0.307518631219863892 0.0996532514691352844
-0.182395800948143005 0.131534114480018616 0.0997036546468734741
0.00843202695250511169 -0.0653290078043937683 0.100448600947856903
-0.0277973134070634842 0.281040400266647339 0.101358413696289062
-0.00552688539028167725 0.227538272738456726 0.101617485284805298
0.0219373330473899841 0.00641561811789870262 0.101696841418743134
-0.0916470363736152649 -0.357220202684402466 0.101847626268863678
0.0107468925416469574 0.0165250077843666077 0.1019926518201828
0.0259263180196285248 -0.212010577321052551 0.102073535323143005
-0.000457443937193602324 0.00744226155802607536 0.102645620703697205
-0.156381785869598389 -0.0992858409881591797 0.1029929518699646
0.0455722622573375702 0.35210716724395752 0.104564249515533447
-0.00772154703736305237 0.089871920645236969 0.104678921401500702
-0.0229407493025064468 0.217280209064483643 0.104835420846939087
0.00732821505516767502 -0.00270008970983326435 0.105648800730705261
0.152969479560852051 -0.320283710956573486 0.105732500553131104
0.00693365652114152908 0.119119390845298767 0.105834782123565674
0.0569183565676212311 -0.287370800971984863 0.105940669775009155
-0.0510644018650054932 -0.352642595767974854 0.106055982410907745
0.0296150799840688705 -0.175915747880935669 0.106462851166725159
0.0575907640159130096 -0.294754922389984131 0.106837399303913116
0.0334019288420677185 -0.281667858362197876 0.106998786330223083
-0.0134603297337889671 0.315458565950393677 0.107076317071914673
0.0241651050746440887 -0.0240495260804891586 0.107416115701198578
0.0855046212673187256 -0.332712799310684204 0.107685640454292297
-0.174246311187744141 0.0588534586131572723 0.107797823846340179
0.0768619254231452942 -0.311343550682067871 0.10793207585811615
0.0502537041902542114 0.351551622152328491 0.108219370245933533
-0.184279397130012512 0.325464755296707153 0.108349010348320007
0.0462658144533634186 0.327652275562286377 0.108817681670188904
0.0249377023428678513 -0.0338775217533111572 0.109070584177970886
0.0029700996819883585 0.01116980891674757 0.109112367033958435
-0.0188982598483562469 0.211922839283943176 0.109229221940040588
0.00785401184111833572 0.104473419487476349 0.10932738333940506
-0.0157634615898132324 0.31345820426940918 0.109613373875617981
-0.00959429331123828888 0.141600504517555237 0.110363155603408813
-0.00696349795907735825 0.328536808490753174 0.110401399433612823
-0.181048974394798279 0.258543312549591064 0.110631980001926422
0.0105085317045450211 0.0800482332706451416 0.110714323818683624
0.11240425705909729 -0.312683582305908203 0.110839806497097015
-0.00417847465723752975 0.192796811461448669 0.111195303499698639
0.0725431591272354126 -0.319961786270141602 0.111312292516231537
-0.017120707780122757 0.311687856912612915 0.11185813695192337
0.040715489536523819 -0.25973162055015564 0.112577535212039948
-0.162323474884033203 -0.0466987080872058868 0.11275937408208847
-0.19113999605178833 0.22060161828994751 0.112809993326663971
-0.19798886775970459 0.305684983730316162 0.113134883344173431
0.058848850429058075 -0.306110024452209473 0.113447599112987518
0.0241288244724273682 -0.0372640527784824371 0.113599777221679688
0.0308035686612129211 -0.192840337753295898 0.113688252866268158
-0.123134694993495941 -0.307119756937026978 0.11370684951543808
-0.126732036471366882 -0.271164834499359131 0.113829448819160461
0.0235482882708311081 -0.196949094533920288 0.114096157252788544
-0.14457528293132782 -0.203784480690956116 0.115808181464672089
-0.194850519299507141 0.324737787246704102 0.115865714848041534
-0.129056409001350403 0.3316936194896698 0.116216361522674561
-0.125854805111885071 -0.309045881032943726 0.116822093725204468
0.00437596812844276428 0.114840596914291382 0.116923488676548004
0.0253770891577005386 -0.199659198522567749 0.117063760757446289
0.0240338481962680817 -0.212549477815628052 0.117385774850845337
0.00924535375088453293 -0.0751884356141090393 0.117539763450622559
0.0294034183025360107 -0.0896145999431610107 0.117860838770866394
0.000429975043516606092 0.140065491199493408 0.11867128312587738
0.0187082551419734955 -0.145425707101821899 0.118716895580291748
0.00884828530251979828 0.0734487101435661316 0.119209699332714081
0.029885588213801384 -0.269599348306655884 0.119470022618770599
0.0133106373250484467 0.0373618155717849731 0.119628489017486572
-0.0284631717950105667 -0.350079596042633057 0.120367005467414856
0.0303058940917253494 -0.104712218046188354 0.121398717164993286
0.0299731940031051636 -0.223272129893302917 0.122021622955799103
0.0011712866835296154 0.127504408359527588 0.12232237309217453
-0.0904897376894950867 0.336318820714950562 0.12253202497959137
0.0030511016957461834 0.113181702792644501 0.122840449213981628
0.0267829261720180511 -0.202497363090515137 0.123349629342556
0.0152759375050663948 -0.15764133632183075 0.123694635927677155
-0.189403757452964783 0.193154901266098022 0.12374386191368103
-0.0933949127793312073 -0.357415765523910522 0.124221868813037872
-0.124311655759811401 -0.274827629327774048 0.124698072671890259
0.0255966838449239731 -0.213468551635742188 0.125080510973930359
-0.178430184721946716 0.0958718433976173401 0.125715494155883789
-0.14433307945728302 -0.205898240208625793 0.125735029578208923
0.0316563360393047333 -0.214623048901557922 0.12598264217376709
-0.124583452939987183 -0.34954342246055603 0.126142889261245728
-0.0438621006906032562 -0.351829081773757935 0.126281976699829102
0.0482942238450050354 -0.262198001146316528 0.126413807272911072
-0.000233659724472090602 0.131348401308059692 0.126611113548278809
-0.149805605411529541 -0.157399773597717285 0.126782909035682678
0.00272966129705309868 -0.0699435621500015259 0.127191409468650818
0.0253558270633220673 -0.282825767993927002 0.12723936140537262
0.00743270246312022209 -0.12929852306842804 0.127290457487106323
0.00606693746522068977 -0.0877245068550109863 0.127354755997657776
-0.119869634509086609 -0.285572350025177002 0.127617329359054565
0.00178146816324442625 -0.0906792283058166504 0.127686917781829834
0.00681470893323421478 -0.139777183532714844 0.128286972641944885
0.0245813466608524323 -0.287764966487884521 0.128512844443321228
-0.0196450930088758469 0.15937592089176178 0.128606662154197693
-0.0213412772864103317 0.146601617336273193 0.12876497209072113
-0.00661548599600791931 0.17843945324420929 0.128858655691146851
-0.0128552466630935669 0.0781215429306030273 0.128921478986740112
0.0355962067842483521 -0.28747442364692688 0.129058092832565308
-0.011930135078728199 0.0751316547393798828 0.129229485988616943
0.00891958363354206085 -0.189111500978469849 0.129456877708435059
-0.138996317982673645 -0.253143221139907837 0.12950386106967926
-0.0317032597959041595 0.238441348075866699 0.12966640293598175
0.013827507384121418 0.0111558521166443825 0.129686221480369568
0.0393096208572387695 -0.294379532337188721 0.129714429378509521
0.00682759005576372147 -0.0492437221109867096 0.129763498902320862
0.00414727674797177315 -0.141237169504165649 0.129877790808677673
0.0369470119476318359 -0.180738881230354309 0.130837306380271912
-0.119898520410060883 -0.359570980072021484 0.130983754992485046
0.00746478280052542686 -0.0520954392850399017 0.131054788827896118
0.0164726469665765762 -0.0140423057600855827 0.131297707557678223
-0.0353353172540664673 0.200131341814994812 0.131410256028175354
-0.180588394403457642 0.248900040984153748 0.131410673260688782
0.0248210001736879349 -0.160485446453094482 0.131466373801231384
0.033055577427148819 -0.149505272507667542 0.13148537278175354
-0.0344940610229969025 0.220970630645751953 0.131651714444160461
-0.0329316854476928711 0.191291019320487976 0.131710872054100037
0.0387552939355373383 -0.197973385453224182 0.132304787635803223
0.00153459550347179174 -0.141807392239570618 0.132897570729255676
0.0281326882541179657 -0.112468712031841278 0.133000686764717102
-0.029597647488117218 0.217267021536827087 0.133207961916923523
-0.00506407441571354866 0.157207757234573364 0.133249655365943909
-0.143954470753669739 -0.20894370973110199 0.133741959929466248
-0.0421129465103149414 0.227126851677894592 0.133848637342453003
-0.0169545300304889679 0.251238048076629639 0.134058937430381775
-0.0332361198961734772 0.17629474401473999 0.134521052241325378
-0.142675340175628662 -0.220033839344978333 0.13453085720539093
-0.171861067414283752 0.0377242118120193481 0.134547799825668335
-0.006574288010597229 0.0898470506072044373 0.134652763605117798
-0.00675224605947732925 0.0856846049427986145 0.135748431086540222
-0.00932767335325479507 -0.0475127510726451874 0.13577626645565033
0.0270033031702041626 -0.211127713322639465 0.136052131652832031
-0.0691007822751998901 -0.354680180549621582 0.136327311396598816
-0.191363915801048279 0.210842162370681763 0.136348381638526917
0.0460198037326335907 -0.269823700189590454 0.136402055621147156
0.0490779019892215729 -0.316995054483413696 0.136562228202819824
-0.000471983163151890039 -0.118345707654953003 0.136953800916671753
-0.016133161261677742 0.0404312126338481903 0.13726632297039032
0.0160973574966192245 -0.116864114999771118 0.137384533882141113
-0.0849441960453987122 -0.356468230485916138 0.137577936053276062
0.00824991520494222641 -0.0391752943396568298 0.137770116329193115
-0.183747634291648865 0.143015146255493164 0.137789487838745117
-0.0397003144025802612 0.214639142155647278 0.137794971466064453
0.0169038139283657074 -0.109361596405506134 0.137894883751869202
0.0313677266240119934 -0.151147574186325073 0.137934520840644836
0.00830072443932294846 -0.0476343110203742981 0.137981250882148743
0.0451435111463069916 -0.268334358930587769 0.13846297562122345
-0.180594474077224731 0.250490128993988037 0.138634532690048218
0.0268560480326414108 -0.20844857394695282 0.138740524649620056
-0.186787068843841553 0.169836565852165222 0.139187216758728027
0.0215129703283309937 -0.0724124908447265625 0.139204666018486023
0.0235340278595685959 -0.089027896523475647 0.139216586947441101
-0.172592103481292725 0.0441930443048477173 0.13933369517326355
-0.00903270021080970764 0.0980223044753074646 0.139591023325920105
-0.0347174257040023804 0.343033671379089355 0.139623776078224182
0.037693507969379425 -0.342606514692306519 0.13998134434223175
0.0254124030470848083 -0.108571581542491913 0.140305638313293457
-0.0299421437084674835 0.343511998653411865 0.140585005283355713
0.0327017717063426971 -0.257276028394699097 0.141397729516029358
-0.18060716986656189 0.25381547212600708 0.141459256410598755
-0.199034452438354492 0.322333365678787231 0.141648128628730774
-0.0357293151319026947 0.259034872055053711 0.141665831208229065
0.021737249568104744 -0.080034792423248291 0.141754359006881714
0.00873309560120105743 -0.194186970591545105 0.141791298985481262
0.0280914939939975739 -0.131864219903945923 0.141946554183959961
-0.00519223324954509735 0.139026612043380737 0.141961231827735901
-0.00958385597914457321 0.0624558590352535248 0.142172902822494507
-0.0141591895371675491 -0.34847143292427063 0.14230133593082428
-0.00674727931618690491 0.0351923704147338867 0.142302587628364563
-0.00684046419337391853 0.0153796002268791199 0.142316699028015137
-0.0286920219659805298 0.208175048232078552 0.142373442649841309
0.000607207242865115404 0.0907948091626167297 0.142374604940414429
0.0490510985255241394 -0.310975104570388794 0.142409637570381165
0.0148087311536073685 -0.181650906801223755 0.142735183238983154
0.0137616200372576714 -0.281886041164398193 0.143568947911262512
-0.161071285605430603 -0.0577858537435531616 0.144728660583496094
0.00508084520697593689 -0.130825251340866089 0.145293056964874268
-0.138927802443504333 -0.253648549318313599 0.145351901650428772
0.0231591667979955673 -0.100907072424888611 0.14542156457901001
-0.0257215052843093872 0.106499604880809784 0.14586581289768219
-0.0477741658687591553 0.286639928817749023 0.145891591906547546
-0.0108803967013955116 0.175468266010284424 0.146398916840553284
-0.142571613192558289 -0.220954343676567078 0.146689191460609436
-0.174996018409729004 0.0655201151967048645 0.146823540329933167
0.0238331221044063568 -0.344181329011917114 0.147064298391342163
0.0116865523159503937 -0.156668871641159058 0.147161528468132019
-0.107412979006767273 0.334900528192520142 0.148544162511825562
-0.142222434282302856 0.330976426601409912 0.148654624819755554
-0.181284591555595398 0.241627544164657593 0.148826166987419128
-0.0462694130837917328 0.283408612012863159 0.148830413818359375
-0.18623034656047821 0.164911344647407532 0.148892045021057129
-0.199188828468322754 0.316477060317993164 0.149117693305015564
-0.00158864539116621017 0.093730539083480835 0.149122029542922974
-0.00740392552688717842 0.140364289283752441 0.149417281150817871
0.0297796688973903656 -0.163501530885696411 0.149549663066864014
-0.164231985807418823 -0.0298033654689788818 0.149643406271934509
-0.124594397842884064 -0.349454909563064575 0.15042819082736969
0.0344889089465141296 -0.286238580942153931 0.151118621230125427
-0.0462878793478012085 0.279042631387710571 0.152051284909248352
-0.023782121017575264 0.26789093017578125 0.152097940444946289
-0.0219922401010990143 0.0891049951314926147 0.152111396193504333
-0.0157201532274484634 0.201483786106109619 0.152459606528282166
-0.173556104302406311 0.0527224503457546234 0.154569521546363831
0.0285948682576417923 -0.302084505558013916 0.154759809374809265
-0.0256086308509111404 0.110200174152851105 0.155891180038452148
0.0381106995046138763 -0.249531149864196777 0.156561613082885742
-0.127053245902061462 -0.309186071157455444 0.15710766613483429
-0.148172661662101746 -0.171954616904258728 0.157753944396972656
0.0176807567477226257 -0.0826068371534347534 0.15805479884147644
-0.187247738242149353 0.22827562689781189 0.158472448587417603
-0.0234829466789960861 0.0999506264925003052 0.159018531441688538
-0.0266042072325944901 0.343721270561218262 0.159244760870933533
-0.0172116309404373169 0.197755381464958191 0.159614235162734985
-0.0228529926389455795 0.10835709422826767 0.159767553210258484
-0.00572598166763782501 0.103516489267349243 0.160011142492294312
-0.164232924580574036 -0.0297950319945812225 0.160269469022750854
-0.153638646006584167 -0.123578876256942749 0.160453960299491882
0.03900933638215065 -0.266152262687683105 0.160543873906135559
0.01664741151034832 -0.344992756843566895 0.16110152006149292
-0.136636078357696533 -0.26151806116104126 0.161711126565933228
0.000888512935489416122 0.0451864972710609436 0.162000551819801331
0.0344434715807437897 -0.342977941036224365 0.162363752722740173
-0.0156318731606006622 0.178247496485710144 0.162585660815238953
-0.188748881220817566 0.187199443578720093 0.162925302982330322
-0.17238403856754303 0.0423511601984500885 0.163185670971870422
-0.151031360030174255 -0.146058619022369385 0.164206355810165405
-0.1823616623878479 0.263779401779174805 0.164263367652893066
0.00472518568858504295 0.00700266472995281219 0.164819642901420593
-0.123295895755290985 -0.276444941759109497 0.164990201592445374
-0.0219535194337368011 0.223945677280426025 0.165106877684593201
-0.187521070241928101 0.176328405737876892 0.165523335337638855
0.0116572165861725807 -0.0525111183524131775 0.165904372930526733
-0.0280201099812984467 0.267185688018798828 0.166130796074867249
-0.0190520882606506348 0.194517761468887329 0.166130885481834412
0.0110237058252096176 -0.0474998727440834045 0.166338592767715454
-0.0603166259825229645 -0.353687882423400879 0.16663987934589386
0.0312982946634292603 -0.217012748122215271 0.168116047978401184
0.00409932201728224754 -0.00233598239719867706 0.168605804443359375
0.00391036923974752426 -0.00178185012191534042 0.168842688202857971
-0.0194442719221115112 0.318691611289978027 0.169169709086418152
0.0140561359003186226 -0.0866668149828910828 0.170199692249298096
-0.0147900907322764397 0.14424075186252594 0.170296341180801392
-0.0314360931515693665 0.27635723352432251 0.170327410101890564
-0.013428577221930027 -0.0934036821126937866 0.170733943581581116
-0.00334296911023557186 0.0491251274943351746 0.170791998505592346
-0.112296931445598602 0.334345340728759766 0.170863375067710876
0.0261122174561023712 -0.274409621953964233 0.170916542410850525
-0.124626487493515015 -0.349182933568954468 0.172592461109161377
0.0185500271618366241 -0.344777941703796387 0.172755047678947449
-0.00351614388637244701 0.038152690976858139 0.173107057809829712
-0.0227797720581293106 0.188904955983161926 0.173221051692962646
-0.00361606688238680363 0.0335774309933185577 0.173943355679512024
0.0193530377000570297 -0.34468725323677063 0.174414828419685364
-0.121324643492698669 -0.359302341938018799 0.174429893493652344
-0.16341090202331543 -0.0370722077786922455 0.17472057044506073
0.0198223330080509186 -0.156952694058418274 0.174726396799087524
0.00607823766767978668 -0.050184149295091629 0.174879401922225952
-0.0191372167319059372 0.335578441619873047 0.17497175931930542
-0.185387283563613892 0.268839120864868164 0.175043612718582153
-0.024169454351067543 0.089419931173324585 0.175568804144859314
-0.124556228518486023 -0.307080864906311035 0.175926968455314636
-0.0179664324969053268 0.324410408735275269 0.175980553030967712
0.00509386742487549782 -0.133090734481811523 0.176342874765396118
-0.167916163802146912 0.00288210459984838963 0.176547110080718994
-0.143938243389129639 -0.209074676036834717 0.176562279462814331
0.0160392746329307556 -0.147717744112014771 0.176734626293182373
-0.0430671572685241699 0.289874881505966187 0.1768513023853302
0.00110062630847096443 -0.0323891304433345795 0.176883488893508911
-0.0336981602013111115 0.108321361243724823 0.177014738321304321
0.0304093826562166214 -0.265141844749450684 0.177108898758888245
0.0174172986298799515 -0.207073062658309937 0.177439957857131958
0.0216870605945587158 -0.200965538620948792 0.177463710308074951
-0.0105829061940312386 0.0462690703570842743 0.17754305899143219
-0.138331413269042969 -0.257112801074981689 0.177709445357322693
-0.0211419668048620224 0.124122992157936096 0.178322792053222656
0.0174533147364854813 -0.185251280665397644 0.178392365574836731
0.0103469323366880417 -0.268155723810195923 0.178444162011146545
-0.19820520281791687 0.307626545429229736 0.178497850894927979
-0.0271463897079229355 0.313834547996520996 0.178658679127693176
-0.014920736663043499 0.0749452635645866394 0.179215818643569946
-0.00448762113228440285 -0.0272745862603187561 0.179987460374832153
-0.127664268016815186 -0.312994807958602905 0.180121749639511108
-0.186539068818092346 0.16764049232006073 0.180897191166877747
-0.179365366697311401 0.104146033525466919 0.181242749094963074
-0.0756619572639465332 0.338165521621704102 0.181374117732048035
-0.0623600855469703674 -0.353918880224227905 0.181426212191581726
0.0386340171098709106 -0.30897185206413269 0.181430026888847351
0.00998290907591581345 -0.299366295337677002 0.181974545121192932
-0.17618483304977417 0.0760461613535881042 0.182590484619140625
-0.0127845471724867821 0.0159973874688148499 0.183298707008361816
-0.0193918514996767044 0.0733983591198921204 0.183506593108177185
-0.190076380968093872 0.200188010931015015 0.183980822563171387
-0.121993750333786011 -0.30325588583946228 0.184213042259216309
-0.0369372963905334473 0.204012736678123474 0.184659034013748169
-0.0176941417157649994 -0.0961535647511482239 0.18481878936290741
-0.194394230842590332 0.277900785207748413 0.185600206255912781
-0.187114760279655457 0.173170328140258789 0.185677394270896912
0.00133593822829425335 -0.163240790367126465 0.186223745346069336
0.00771612068638205528 -0.34600222110748291 0.186481848359107971
-0.0576517805457115173 0.281196236610412598 0.186726778745651245
-0.124492928385734558 -0.307027488946914673 0.187195375561714172
-0.18059171736240387 0.249768421053886414 0.187439918518066406
-0.173852339386940002 0.0583223141729831696 0.187666386365890503
-0.0299644805490970612 0.0826973244547843933 0.187703892588615417
-0.0123077519237995148 -0.348262608051300049 0.188018158078193665
-0.00700635230168700218 -0.0612617917358875275 0.188023105263710022
-0.0263626594096422195 0.0800932496786117554 0.188062310218811035
-0.191179379820823669 0.220222488045692444 0.189897701144218445
-0.191643893718719482 0.215435698628425598 0.18998892605304718
-0.0454102791845798492 0.238093569874763489 0.19014248251914978
-0.174346908926963806 0.0669815540313720703 0.190335467457771301
0.00146716670133173466 -0.18580278754234314 0.190673232078552246
0.0309355054050683975 -0.343378424644470215 0.190732389688491821
-0.0429838597774505615 0.218353569507598877 0.19159989058971405
-0.0468766540288925171 0.247757643461227417 0.192259728908538818
-0.0229169949889183044 0.0487929098308086395 0.192901834845542908
-0.159838542342185974 -0.0627907365560531616 0.193538308143615723
-0.00739129772409796715 -0.114553831517696381 0.19366048276424408
-0.0162129085510969162 -0.00568222673609852791 0.194062978029251099
-0.181584626436233521 0.239642992615699768 0.194271296262741089
-0.16385158896446228 -0.0194246303290128708 0.194417223334312439
-0.0505666770040988922 0.269818544387817383 0.194481030106544495
-0.0107692927122116089 -0.348089128732681274 0.194552361965179443
-0.0263838246464729309 0.075127921998500824 0.194969296455383301
-0.118894077837467194 -0.291040867567062378 0.195576190948486328
-0.0827920809388160706 0.336976498365402222 0.196083530783653259
0.00679519679397344589 -0.266060292720794678 0.196715369820594788
-0.173052653670310974 0.327493906021118164 0.197229832410812378
-0.138916581869125366 -0.230367586016654968 0.197390899062156677
-0.124846860766410828 -0.347265124320983887 0.19767250120639801
-0.154285475611686707 -0.0929117351770401001 0.197763249278068542
-0.127570003271102905 -0.316499799489974976 0.198174461722373962
-0.151526957750320435 -0.116268359124660492 0.198220521211624146
-0.139224275946617126 -0.21881537139415741 0.199121162295341492
-0.0254990197718143463 0.059698447585105896 0.199278265237808228
-0.170330643653869629 0.0593206770718097687 0.199768036603927612
-0.0110899880528450012 -0.0705840066075325012 0.200097799301147461
-0.0403024405241012573 0.170868858695030212 0.200967863202095032
-0.197293698787689209 0.299480170011520386 0.200992360711097717
-0.136689528822898865 -0.223938688635826111 0.202503293752670288
-0.0380997173488140106 0.0857861787080764771 0.202953234314918518
-0.161952227354049683 0.328747689723968506 0.203254282474517822
-0.176193967461585999 0.13561798632144928 0.203993111848831177
-0.180975660681724548 0.178947582840919495 0.204159542918205261
-0.136791795492172241 -0.211941808462142944 0.204179346561431885
-0.00780313834547996521 -0.134046643972396851 0.204599842429161072
-0.164586231112480164 0.0382012315094470978 0.204819023609161377
-0.166387572884559631 0.0608697459101676941 0.205796569585800171
-0.0274623334407806396 0.0638395175337791443 0.206275925040245056
-0.0463319085538387299 0.313493162393569946 0.20654432475566864
-0.140938460826873779 -0.157161056995391846 0.207145735621452332
-0.0175940319895744324 -0.10753360390663147 0.207228749990463257
-0.183701291680335999 0.223755121231079102 0.207236394286155701
-0.177357032895088196 0.16863405704498291 0.207420840859413147
-0.171631261706352234 0.118870019912719727 0.207554414868354797
-0.0281486604362726212 0.0668857097625732422 0.207957074046134949
-0.000800161273218691349 -0.207819804549217224 0.208189532160758972
-0.168949887156486511 0.099560178816318512 0.208217665553092957
-0.0159623585641384125 -0.0509359352290630341 0.208964869379997253
-0.0276867151260375977 0.0595516413450241089 0.209944397211074829
-0.156301289796829224 -0.00476852711290121078 0.210255220532417297
-0.197795301675796509 0.323296844959259033 0.210270747542381287
-0.199233636260032654 0.316897213459014893 0.210295811295509338
-0.164314538240432739 0.0667653530836105347 0.210788324475288391
-0.047825641930103302 0.220313981175422668 0.211096480488777161
0.0386446639895439148 -0.314871937036514282 0.211536362767219543
0.044123522937297821 -0.341829866170883179 0.212018758058547974
-0.00614409521222114563 -0.164629936218261719 0.212457671761512756
-0.13967365026473999 -0.142987430095672607 0.212530583143234253
-0.161118268966674805 0.0527225024998188019 0.212775066494941711
-0.143055394291877747 -0.0976221039891242981 0.214880853891372681
-0.0608750618994235992 -0.353751033544540405 0.215577349066734314
-0.11928877979516983 -0.287962794303894043 0.216201350092887878
-0.0178663358092308044 -0.0505401976406574249 0.216633394360542297
0.0218313876539468765 -0.316638857126235962 0.217378631234169006
-0.0383386239409446716 0.116236373782157898 0.217500105500221252
-0.00821655336767435074 -0.158123761415481567 0.2176189124584198
-0.0208651404827833176 -0.34922221302986145 0.217808425426483154
-0.000100325647508725524 -0.240669175982475281 0.218363121151924133
-0.151862338185310364 0.329667657613754272 0.219076588749885559
-0.174064040184020996 0.1862068772315979 0.219166576862335205
-0.134875476360321045 -0.159500434994697571 0.219454854726791382
0.0114161251112818718 -0.31359294056892395 0.219518512487411499
-0.0436436273157596588 0.341879963874816895 0.219606831669807434
-0.0193421114236116409 -0.0411380156874656677 0.219692856073379517
-0.147367462515830994 -0.0497347526252269745 0.220525830984115601
-0.119444273412227631 -0.286449909210205078 0.220872238278388977
-0.0122740436345338821 -0.130101144313812256 0.221231937408447266
-0.0214470867067575455 -0.0244041681289672852 0.221893444657325745
-0.147838801145553589 -0.040689811110496521 0.223730042576789856
-0.141304850578308105 0.330701589584350586 0.2238035649061203
-0.127812370657920837 0.332114875316619873 0.223894849419593811
-0.0071990499272942543 -0.181752532720565796 0.22412438690662384
-0.196595042943954468 0.293296486139297485 0.22440674901008606
-0.0187795292586088181 -0.112105578184127808 0.225211471319198608
-0.127659216523170471 -0.31388390064239502 0.225450992584228516
-0.175871878862380981 0.208163365721702576 0.226137846708297729
-0.00469200685620307922 -0.271806001663208008 0.226565539836883545
-0.199370682239532471 0.319464564323425293 0.227279111742973328
-0.0206595901399850845 -0.0467555634677410126 0.227758437395095825
-0.182195842266082764 0.26347622275352478 0.228067770600318909
-0.0425500422716140747 0.116366364061832428 0.228097781538963318
-0.0196835622191429138 -0.0572781451046466827 0.228221908211708069
-0.00426545459777116776 -0.270573019981384277 0.22823062539100647
-0.161798030138015747 0.0870020091533660889 0.228882148861885071
-0.0458565764129161835 0.162325233221054077 0.228905618190765381
-0.00947261042892932892 -0.172849506139755249 0.229045391082763672
-0.0487871095538139343 0.187595710158348083 0.22940102219581604
-0.0289674960076808929 -0.0978285446763038635 0.229766771197319031
-0.0539372824132442474 0.232284530997276306 0.22981773316860199
-0.00828044023364782333 -0.286448568105697632 0.231099247932434082
0.0184721872210502625 -0.344786733388900757 0.2312144935131073
-0.0701053887605667114 0.281856149435043335 0.231290802359580994
-0.0520183667540550232 0.212066203355789185 0.231299430131912231
-0.127119645476341248 -0.218703180551528931 0.231443241238594055
-0.161780834197998047 0.0849130600690841675 0.231570854783058167
-0.163920015096664429 0.10680195689201355 0.231863513588905334
-0.180044174194335938 0.250454515218734741 0.232260480523109436
-0.131530895829200745 -0.180027961730957031 0.233033686876296997
-0.130860939621925354 -0.190822631120681763 0.2330961674451828
-0.127431303262710571 -0.31762656569480896 0.233130067586898804
-0.0574380084872245789 0.25317680835723877 0.234198853373527527
-0.192362621426582336 0.325163125991821289 0.234201192855834961
-0.0331536382436752319 0.315444827079772949 0.2346019446849823
-0.0724342018365859985 0.286993235349655151 0.23493388295173645
-0.0546946302056312561 0.225582778453826904 0.235398903489112854
-0.156073868274688721 0.037559065967798233 0.235443025827407837
-0.143638789653778076 -0.0758447200059890747 0.235576093196868896
0.00754874199628829956 -0.346021115779876709 0.236169427633285522
-0.199056521058082581 0.315237194299697876 0.236336112022399902
-0.151551127433776855 -0.00721145700663328171 0.237435132265090942
-0.168057456612586975 0.133045509457588196 0.238390132784843445
-0.0172984134405851364 -0.126425042748451233 0.238854750990867615
-0.152597904205322266 -0.00757877761498093605 0.240446716547012329
-0.163141846656799316 0.0706908255815505981 0.240800186991691589
-0.131261005997657776 -0.210281983017921448 0.241232573986053467
-0.172044679522514343 0.146957248449325562 0.241390913724899292
-0.0113697219640016556 -0.201085582375526428 0.241498664021492004
-0.135281994938850403 -0.163720950484275818 0.241531535983085632
-0.029135996475815773 -0.0801449045538902283 0.24154980480670929
-0.0248206406831741333 -0.0529095940291881561 0.242962121963500977
-0.189647004008293152 0.325549334287643433 0.242962852120399475
-0.151772454380989075 -0.0276766009628772736 0.243240699172019958
-0.0330288037657737732 0.0126398038119077682 0.243781864643096924
-0.184935271739959717 0.261579334735870361 0.243938609957695007
-0.0655157566070556641 0.254825949668884277 0.244961053133010864
-0.129344061017036438 -0.240968465805053711 0.24557766318321228
-0.163883581757545471 0.0601869486272335052 0.245588406920433044
-0.00920837093144655228 -0.290011763572692871 0.246840402483940125
-0.0865051299333572388 -0.356644213199615479 0.247233331203460693
-0.147375330328941345 -0.0988297536969184875 0.247536987066268921
-0.151469558477401733 -0.069735698401927948 0.247588768601417542
-0.186027407646179199 0.242043137550354004 0.247966572642326355
-0.0366956256330013275 0.343642443418502808 0.248074442148208618
-0.158262789249420166 -0.0155882257968187332 0.248957917094230652
-0.130222678184509277 -0.267206311225891113 0.249401018023490906
-0.0450942553579807281 0.0406405180692672729 0.249539107084274292
-0.123938813805580139 0.332481592893600464 0.249639332294464111
-0.0695748254656791687 0.248322769999504089 0.250215590000152588
-0.13553968071937561 -0.236646905541419983 0.250418096780776978
-0.0182376224547624588 0.343633949756622314 0.250705510377883911
-0.00941343884915113449 -0.263970643281936646 0.25089573860168457
-0.131810083985328674 -0.262736082077026367 0.251282066106796265
-0.129822060465812683 -0.287211716175079346 0.25143510103225708
-0.166855961084365845 0.0321573242545127869 0.252336382865905762
-0.0730526372790336609 -0.355126410722732544 0.252573072910308838
-0.00489498581737279892 -0.300029456615447998 0.25277411937713623
-0.160424590110778809 -0.0235274750739336014 0.252858221530914307
-0.195176839828491211 0.280778259038925171 0.253542691469192505
-0.128852546215057373 -0.304804235696792603 0.253645479679107666
-0.150738805532455444 -0.111640140414237976 0.253982335329055786
-0.0390319451689720154 0.00674928585067391396 0.254835456609725952
-0.0153435021638870239 -0.199589252471923828 0.255033344030380249
-0.0032534371130168438 -0.301356494426727295 0.255086809396743774
-0.157222718000411987 -0.0545507818460464478 0.255119621753692627
-0.177932173013687134 0.128580391407012939 0.255259335041046143
-0.0438874624669551849 0.0224546715617179871 0.255737781524658203
-0.000512103841174393892 -0.346931397914886475 0.256797939538955688
-0.164464130997657776 0.00933248456567525864 0.257028758525848389
-0.0154240578413009644 -0.199841529130935669 0.257436245679855347
-0.168280333280563354 0.0427953973412513733 0.257792532444000244
-0.179030716419219971 0.138138622045516968 0.257971018552780151
-0.16160207986831665 -0.0162293259054422379 0.258363187313079834
-0.0150992469862103462 -0.204336851835250854 0.258373916149139404
-0.0229766126722097397 -0.134164243936538696 0.258749157190322876
-0.0629054754972457886 0.218133211135864258 0.258940607309341431
-0.142455056309700012 0.330444484949111938 0.258958041667938232
-0.0293807219713926315 -0.080000750720500946 0.259312748908996582
-0.044102150946855545 0.0467907711863517761 0.259426146745681763
-0.0297461468726396561 0.313309043645858765 0.259847193956375122
-0.0203840211033821106 -0.159500226378440857 0.259916871786117554
-0.0167245343327522278 -0.348759859800338745 0.260062366724014282
-0.0600878298282623291 -0.353661835193634033 0.260149717330932617
-0.155837640166282654 -0.0673680230975151062 0.260530084371566772
-0.171971127390861511 0.0753619521856307983 0.26131206750869751
-0.157422959804534912 -0.0534255318343639374 0.26141822338104248
-0.167375311255455017 0.0352114513516426086 0.262250572443008423
-0.00551093602553009987 0.315721958875656128 0.262346625328063965
-0.134607449173927307 -0.25475001335144043 0.26246228814125061
-0.0028151592705398798 -0.347125619649887085 0.263447374105453491
0.0298393052071332932 -0.343864232301712036 0.263890951871871948
-0.106404677033424377 -0.358833849430084229 0.264194279909133911
-0.0701483264565467834 0.287679612636566162 0.264299005270004272
-0.0536750182509422302 0.342381805181503296 0.264517396688461304
-0.0579582080245018005 0.194518819451332092 0.265211313962936401
-0.122183889150619507 -0.358347624540328979 0.265477746725082397
-0.142551928758621216 -0.183415532112121582 0.265616357326507568
-0.15604497492313385 -0.0643276646733283997 0.265777438879013062
-0.0747004002332687378 -0.355262249708175659 0.266156494617462158
-0.0585378371179103851 0.203015580773353577 0.266341894865036011
-0.0473162271082401276 0.0839951038360595703 0.266356289386749268
-0.184305667877197266 0.186064943671226501 0.26698032021522522
-0.180786892771720886 0.155167296528816223 0.267311990261077881
-0.0406295657157897949 -0.35144314169883728 0.267358839511871338
-0.196548104286193848 0.297469526529312134 0.267526239156723022
-0.127418234944343567 -0.316670805215835571 0.268052130937576294
-0.00488978205248713493 -0.347241461277008057 0.268433481454849243
-0.00929489452391862869 -0.228496462106704712 0.268505960702896118
-0.154030129313468933 -0.0804164335131645203 0.269168466329574585
-0.139054968953132629 0.330733954906463623 0.269398331642150879
-0.145264342427253723 -0.157228901982307434 0.269508868455886841
-0.1084279865026474 0.334542959928512573 0.269578784704208374
-0.144546240568161011 -0.163795709609985352 0.269584298133850098
0.0652559399604797363 -0.318715095520019531 0.269609361886978149
-0.123379595577716827 -0.349718302488327026 0.269617319107055664
-0.159960374236106873 -0.0281311534345149994 0.26992306113243103
-0.161945581436157227 -0.00815873313695192337 0.26994025707244873
-0.0141263473778963089 -0.199818074703216553 0.270288795232772827
-0.00634292047470808029 0.347151756286621094 0.270319342613220215
-0.154917672276496887 -0.0675398334860801697 0.270386099815368652
-0.164256766438484192 0.0174928531050682068 0.270583361387252808
-0.0694108828902244568 0.293027967214584351 0.270846396684646606
-0.151951327919960022 -0.0966915860772132874 0.271227031946182251
-0.136327162384986877 -0.232805564999580383 0.271494567394256592
-0.121012076735496521 -0.358630746603012085 0.271496057510375977
-0.0460743643343448639 0.0930999889969825745 0.272011607885360718
-0.195906803011894226 0.310814142227172852 0.272014379501342773
-0.128724187612533569 -0.298044055700302124 0.272322893142700195
-0.0214005820453166962 -0.127251923084259033 0.272420704364776611
-0.183353394269943237 0.183802187442779541 0.272894084453582764
-0.195739224553108215 0.320950359106063843 0.273079961538314819
-0.0023813699372112751 -0.294967174530029297 0.273163855075836182
-0.0427876599133014679 -0.350275307893753052 0.273553401231765747
-0.0548453368246555328 0.186487510800361633 0.27366173267364502
-0.0382216237485408783 0.0379163213074207306 0.273696750402450562
-0.168202981352806091 0.0698987394571304321 0.274056673049926758
-0.0191544592380523682 -0.344355493783950806 0.274243474006652832
-0.183900550007820129 0.219062700867652893 0.274477332830429077
0.0178142394870519638 -0.341586649417877197 0.274623453617095947
-0.0220846571028232574 -0.109306842088699341 0.274637103080749512
-0.021600775420665741 -0.115581423044204712 0.274659425020217896
-0.0622026398777961731 -0.0524202063679695129 0.274770081043243408
-0.136772796511650085 0.0123945353552699089 0.274770587682723999
-0.0021501684095710516 0.328534930944442749 0.274848431348800659
-0.0768063962459564209 -0.039380297064781189 0.274886369705200195
-0.0242913849651813507 -0.333022892475128174 0.274900496006011963
-0.0202425476163625717 -0.328166365623474121 0.2750130295753479
-0.0919516831636428833 -0.350428998470306396 0.275016605854034424
-0.154599472880363464 0.0914001390337944031 0.275018185377120972
-0.031881432980298996 -0.337303191423416138 0.275055408477783203
-0.141984418034553528 -0.0122336018830537796 0.275062233209609985
-0.10494532436132431 0.331003636121749878 0.275070041418075562
-0.153130128979682922 0.123433463275432587 0.275218099355697632
-0.161896020174026489 0.0755259543657302856 0.275233834981918335
-0.1583222895860672 0.0447848327457904816 0.275251477956771851
-0.167283058166503906 0.143160700798034668 0.275281637907028198
-0.0168458167463541031 0.313297420740127563 0.275291949510574341
-0.164021521806716919 0.0698808357119560242 0.275318920612335205
-0.00424324255436658859 -0.339131027460098267 0.275355756282806396
-0.119095116853713989 -0.32696416974067688 0.275366097688674927
-0.0962125509977340698 -0.0265965517610311508 0.275378495454788208
-0.1517229825258255 0.138802796602249146 0.275393009185791016
-0.0331373997032642365 -0.185852661728858948 0.275403738021850586
-0.0604989565908908844 -0.00315683591179549694 0.275408685207366943
-0.0502457693219184875 0.107593759894371033 0.275417357683181763
-0.0289101693779230118 -0.195891484618186951 0.275436520576477051
-0.161682292819023132 0.163970008492469788 0.275440752506256104
-0.126430273056030273 0.0670093148946762085 0.27545475959777832
-0.0369521267712116241 -0.0868638604879379272 0.275469034910202026
-0.0365581735968589783 -0.0903728976845741272 0.275476515293121338
-0.0650572627782821655 0.232445582747459412 0.275481462478637695
-0.041808001697063446 -0.00973245315253734589 0.275482684373855591
-0.0404916144907474518 -0.215588867664337158 0.275484800338745117
-0.0631380230188369751 0.331373691558837891 0.275503367185592651
-0.0241438988596200943 -0.178274780511856079 0.2755260169506073
-0.167709618806838989 0.193776518106460571 0.27553790807723999
-0.132088661193847656 0.0886847600340843201 0.275550246238708496
-0.121023587882518768 -0.0187944378703832626 0.275562882423400879
-0.173098966479301453 0.196460053324699402 0.275572925806045532
-0.129666104912757874 -0.0191054940223693848 0.275576114654541016
-0.0548856519162654877 -0.167241305112838745 0.275595486164093018
-0.171106040477752686 0.189387351274490356 0.275598436594009399
-0.164318680763244629 0.175847142934799194 0.275625824928283691
-0.116514451801776886 0.0566800199449062347 0.275653243064880371
-0.0208898037672042847 -0.23065030574798584 0.275693297386169434
-0.131672859191894531 -0.220665812492370605 0.275702893733978271
-0.136858701705932617 -0.166172131896018982 0.27570730447769165
-0.166369900107383728 0.289865344762802124 0.27573123574256897
-0.13774755597114563 -0.133460059762001038 0.275737494230270386
-0.0945088043808937073 0.297010064125061035 0.275743633508682251
-0.0628606081008911133 -0.154769718647003174 0.275751501321792603
-0.12722422182559967 -0.223544523119926453 0.275762110948562622
-0.113257788121700287 -0.309935003519058228 0.275762468576431274
-0.0940797403454780579 -0.308807492256164551 0.275769859552383423
-0.0377506576478481293 -0.308547079563140869 0.275769859552383423
-0.0625554472208023071 -0.307465016841888428 0.275769859552383423
-0.0431653410196304321 -0.299704879522323608 0.275769859552383423
-0.10881149023771286 -0.293791919946670532 0.275769859552383423
-0.0209294017404317856 -0.292829692363739014 0.275769859552383423
-0.0822631195187568665 -0.283418953418731689 0.275769859552383423
-0.0318858735263347626 -0.276712715625762939 0.275769859552383423
-0.0891271084547042847 -0.275200724601745605 0.275769859552383423
-0.114737838506698608 -0.270440429449081421 0.275769859552383423
-0.0370935685932636261 -0.257596850395202637 0.275769859552383423
-0.0613761208951473236 -0.238551586866378784 0.275769859552383423
-0.0988360047340393066 -0.226916611194610596 0.275769859552383423
-0.0739349573850631714 -0.224894076585769653 0.275769859552383423
-0.0491096675395965576 -0.209468722343444824 0.275769859552383423
-0.0584913343191146851 -0.199372291564941406 0.275769859552383423
-0.0770145133137702942 -0.197123467922210693 0.275769859552383423
-0.125025629997253418 -0.181827634572982788 0.275769859552383423
-0.119956806302070618 -0.146713405847549438 0.275769859552383423
-0.0954327210783958435 -0.121577762067317963 0.275769859552383423
