ply
format ascii 1.0
element vertex 712
property float x
property float y
property float z
end_header
-0.143176466226577759 0.0785951614379882812 -0.234808087348937988
-0.0965012013912200928 0.370988667011260986 -0.234767332673072815
-0.13035660982131958 0.242878451943397522 -0.234657377004623413
-0.173542380332946777 0.0970997214317321777 -0.234554499387741089
-0.170869886875152588 0.331606924533843994 -0.234455704689025879
-0.173220396041870117 -0.268399029970169067 -0.234241053462028503
-0.128842189908027649 0.00270248460583388805 -0.234181568026542664
0.077016785740852356 0.360265821218490601 -0.234146595001220703
-0.168909668922424316 -0.231095194816589355 -0.234065115451812744
-0.1693306565284729 0.13172854483127594 -0.233656495809555054
0.0869621410965919495 -0.346160680055618286 -0.232622012495994568
-0.0188880357891321182 -0.351595103740692139 -0.232341781258583069
-0.128472238779067993 0.0899605080485343933 -0.232290565967559814
-0.015469665639102459 -0.114370204508304596 -0.231881022453308105
0.0861873924732208252 0.342588603496551514 -0.231719940900802612
-0.168149009346961975 -0.0527917258441448212 -0.231704667210578918
-0.167860105633735657 -0.276432782411575317 -0.231666505336761475
-0.126816079020500183 0.117348663508892059 -0.230648711323738098
-0.123349763453006744 -0.176171451807022095 -0.230526074767112732
-0.133964687585830688 -0.0593251176178455353 -0.229982003569602966
-0.162424951791763306 0.0875458121299743652 -0.229844808578491211
-0.171898499131202698 0.119027264416217804 -0.229827642440795898
-0.122863486409187317 -0.255313754081726074 -0.229694560170173645
-0.122848100960254669 0.297252804040908813 -0.229670345783233643
-0.173616260290145874 -0.347019970417022705 -0.229486823081970215
-0.0141924032941460609 0.172761902213096619 -0.229245856404304504
-0.14126923680305481 -0.0919224321842193604 -0.227816551923751831
-0.150386333465576172 0.0883545726537704468 -0.227790996432304382
-0.121496677398681641 0.294059544801712036 -0.227464228868484497
-0.0148644475266337395 0.0168273821473121643 -0.227108746767044067
-0.172834575176239014 -0.334153413772583008 -0.226889654994010925
0.0701868683099746704 -0.343197882175445557 -0.22678038477897644
-0.120780177414417267 -0.07704906165599823 -0.225853696465492249
-0.0146282613277435303 0.0714873969554901123 -0.225124165415763855
-0.0141816064715385437 0.252571463584899902 -0.224551603198051453
0.0657463446259498596 0.341641485691070557 -0.224506467580795288
-0.015269092284142971 -0.0771486461162567139 -0.224489837884902954
0.0858463495969772339 -0.348331719636917114 -0.223844945430755615
-0.164933428168296814 -0.0901228785514831543 -0.223540917038917542
-0.0141500607132911682 0.182602301239967346 -0.223215639591217041
0.077310614287853241 0.341162830591201782 -0.222204610705375671
0.163096264004707336 0.131405562162399292 -0.22212529182434082
-0.0136662125587463379 0.294756710529327393 -0.221535444259643555
-0.142616257071495056 -0.253808647394180298 -0.220972836017608643
-0.0209626294672489166 -0.36301305890083313 -0.219725295901298523
-0.129623666405677795 -0.371825993061065674 -0.218601778149604797
-0.0143910115584731102 0.126591131091117859 -0.217698395252227783
-0.0152537077665328979 -0.0734334737062454224 -0.21765001118183136
-0.020697426050901413 -0.342020988464355469 -0.217436760663986206
-0.118043020367622375 0.095951467752456665 -0.216820836067199707
0.0813523754477500916 -0.343076378107070923 -0.216751232743263245
-0.117559410631656647 -0.301927834749221802 -0.216686934232711792
-0.014130881056189537 0.187059089541435242 -0.216065302491188049
-0.164976879954338074 0.11927369236946106 -0.214299887418746948
-0.117251507937908173 0.25751417875289917 -0.212582260370254517
-0.0152720184996724129 -0.0778150781989097595 -0.212527036666870117
-0.0146304145455360413 0.0709871351718902588 -0.212185695767402649
-0.0143035305663943291 0.146918788552284241 -0.212183669209480286
0.173581987619400024 -0.113065831363201141 -0.212078690528869629
-0.117077171802520752 -0.278211861848831177 -0.210737019777297974
-0.15106712281703949 0.11866355687379837 -0.210402548313140869
-0.173473060131072998 -0.349263191223144531 -0.209180921316146851
-0.11658768355846405 -0.242857351899147034 -0.207403883337974548
-0.125565975904464722 0.333624184131622314 -0.207301169633865356
0.171457380056381226 0.128113791346549988 -0.206811606884002686
-0.123330689966678619 -0.327285349369049072 -0.206764250993728638
0.167348071932792664 -0.108229778707027435 -0.206392973661422729
-0.0152813522145152092 -0.0799997225403785706 -0.206145390868186951
-0.116429314017295837 -0.0894674509763717651 -0.205858588218688965
-0.107954107224941254 0.371927320957183838 -0.204440131783485413
-0.137327253818511963 -0.0705991387367248535 -0.204311072826385498
-0.0157274231314659119 -0.183406755328178406 -0.203793033957481384
0.169005587697029114 -0.117575675249099731 -0.203188672661781311
-0.123773477971553802 0.333109796047210693 -0.203133121132850647
-0.0410090871155261993 0.371486663818359375 -0.203025519847869873
-0.135629251599311829 -0.371825993061065674 -0.202808737754821777
-0.0147752091288566589 0.0374029576778411865 -0.202646121382713318
-0.0974881798028945923 0.37091517448425293 -0.201987937092781067
-0.0211135335266590118 -0.355500280857086182 -0.201931178569793701
0.167625635862350464 0.134044483304023743 -0.201705470681190491
-0.161654338240623474 0.345031827688217163 -0.200451716780662537
-0.116432465612888336 -0.0628040581941604614 -0.200437813997268677
-0.155598878860473633 0.286394953727722168 -0.200391858816146851
-0.0624756030738353729 -0.371825993061065674 -0.200046911835670471
-0.139728769659996033 -0.0881355404853820801 -0.199159562587738037
-0.122990220785140991 0.37182915210723877 -0.199084565043449402
-0.142499402165412903 -0.257128030061721802 -0.199032574892044067
-0.0756547525525093079 0.370988637208938599 -0.197935402393341064
-0.0973176509141921997 0.370890140533447266 -0.197572469711303711
0.168797716498374939 -0.108479462563991547 -0.196327030658721924
0.172260656952857971 0.128291487693786621 -0.19514840841293335
-0.021131591871380806 0.364297926425933838 -0.194718539714813232
-0.0161055345088243484 -0.271287977695465088 -0.194022327661514282
-0.0150635158643126488 -0.0294117797166109085 -0.193092525005340576
-0.158396616578102112 -0.246161773800849915 -0.192982688546180725
-0.137309253215789795 -0.0728512927889823914 -0.192865684628486633
-0.0146559728309512138 0.0650482624769210815 -0.19258415699005127
-0.114470332860946655 -0.371825993061065674 -0.191903114318847656
0.167778700590133667 0.134020641446113586 -0.1910114586353302
-0.145662963390350342 -0.246857091784477234 -0.190688788890838623
0.0790943130850791931 -0.342600822448730469 -0.190328314900398254
-0.073600083589553833 -0.371825993061065674 -0.190057903528213501
-0.0159149318933486938 -0.226999595761299133 -0.189961329102516174
-0.0246765539050102234 -0.370416939258575439 -0.18978630006313324
-0.167922481894493103 0.116997204720973969 -0.189555719494819641
0.0860653519630432129 0.348143517971038818 -0.18943321704864502
-0.1657896488904953 0.336077421903610229 -0.189385563135147095
-0.143053978681564331 0.259301871061325073 -0.189127489924430847
-0.150847509503364563 0.364380240440368652 -0.187985360622406006
-0.0144686345010995865 0.221517026424407959 -0.187832728028297424
-0.021391281858086586 -0.347808510065078735 -0.187751650810241699
-0.154141291975975037 -0.0613670311868190765 -0.184776857495307922
0.165033549070358276 0.130090251564979553 -0.184535130858421326
-0.0147829772904515266 0.0356151387095451355 -0.184348970651626587
-0.0973494797945022583 0.370963424444198608 -0.184284329414367676
0.0681817978620529175 0.123942933976650238 -0.183586463332176208
0.0698581337928771973 -0.113182425498962402 -0.183045327663421631
-0.0144694503396749496 0.108365684747695923 -0.182873323559761047
-0.0159825887531042099 -0.242720618844032288 -0.182539820671081543
-0.134458601474761963 0.10990423709154129 -0.181965157389640808
-0.0157364290207624435 -0.185499250888824463 -0.181278258562088013
-0.0150761706754565239 -0.0323522835969924927 -0.180626079440116882
-0.15759807825088501 0.118939444422721863 -0.180516794323921204
-0.132675692439079285 0.27544131875038147 -0.17990538477897644
-0.0149191906675696373 0.195207968354225159 -0.179826021194458008
-0.142682909965515137 -0.251990526914596558 -0.179027363657951355
-0.0150610823184251785 0.159024685621261597 -0.177896693348884583
-0.144531175494194031 -0.0898332670331001282 -0.177880436182022095
-0.158268377184867859 0.285363882780075073 -0.177571386098861694
-0.0143276937305927277 0.21557047963142395 -0.177562668919563293
-0.152762994170188904 0.118730247020721436 -0.177015140652656555
-0.11644146591424942 -0.146413296461105347 -0.17671281099319458
-0.0210759770125150681 -0.352252781391143799 -0.176540419459342957
-0.0144745400175452232 0.107183016836643219 -0.176394656300544739
-0.141228750348091125 0.117887847125530243 -0.176039561629295349
-0.0145276244729757309 0.0948481708765029907 -0.175936102867126465
-0.0160440206527709961 -0.256994098424911499 -0.174985691905021667
-0.0163220763206481934 -0.321522235870361328 -0.174961954355239868
0.163425475358963013 0.133516982197761536 -0.174936160445213318
-0.163322910666465759 -0.0613576024770736694 -0.174645170569419861
-0.145356237888336182 -0.270293384790420532 -0.174193456768989563
-0.0425954423844814301 0.371753513813018799 -0.172536894679069519
-0.156370267271995544 0.259656131267547607 -0.172140046954154968
0.0788621380925178528 0.341219425201416016 -0.171755686402320862
-0.116440996527671814 0.294557273387908936 -0.171611174941062927
0.162806689739227295 0.133344575762748718 -0.171480625867843628
-0.0155421094968914986 -0.140545770525932312 -0.170786693692207336
-0.161308646202087402 -0.245988890528678894 -0.170024871826171875
-0.0139557318761944771 0.227570205926895142 -0.169667914509773254
0.0581008493900299072 0.130089715123176575 -0.168694719672203064
-0.0145337739959359169 0.0934193730354309082 -0.168661370873451233
-0.117493994534015656 -0.30551457405090332 -0.168420940637588501
0.0711914077401161194 0.356437325477600098 -0.167930617928504944
-0.165949583053588867 0.0998671874403953552 -0.16611519455909729
-0.0154160745441913605 -0.111286669969558716 -0.165366962552070618
-0.0143792666494846344 0.129320189356803894 -0.165153086185455322
-0.116440996527671814 0.302368879318237305 -0.164819344878196716
-0.0140098882839083672 0.215146511793136597 -0.16441403329372406
-0.139373958110809326 -0.0625301077961921692 -0.16276957094669342
0.059213537722826004 0.124479442834854126 -0.162256672978401184
-0.157648578286170959 0.260077774524688721 -0.161303237080574036
-0.018593471497297287 -0.332242757081985474 -0.161142423748970032
-0.0152590703219175339 -0.057294059544801712 -0.158836573362350464
-0.0974022820591926575 0.370989888906478882 -0.158779650926589966
-0.0146854016929864883 0.0582101903855800629 -0.158492013812065125
-0.151185765862464905 -0.333322644233703613 -0.158297255635261536
0.0832846388220787048 0.356071621179580688 -0.158278286457061768
-0.0149243706837296486 0.00293011730536818504 -0.158221974968910217
-0.146616518497467041 0.259266048669815063 -0.158155754208564758
-0.0148908095434308052 0.0107044782489538193 -0.157746016979217529
0.0843562260270118713 0.342936933040618896 -0.157695353031158447
-0.15358734130859375 -0.0898931100964546204 -0.157658517360687256
-0.155356824398040771 0.259482920169830322 -0.156927496194839478
-0.134181201457977295 0.104993730783462524 -0.156889989972114563
-0.0846572592854499817 0.370986640453338623 -0.156814008951187134
-0.0139795262366533279 0.222053885459899902 -0.156143203377723694
-0.142626747488975525 -0.251994907855987549 -0.156040564179420471
-0.0194221772253513336 -0.336824744939804077 -0.155240178108215332
0.0656587556004524231 -0.108596675097942352 -0.154808834195137024
-0.116442002356052399 -0.135586023330688477 -0.154505148530006409
-0.014859447255730629 0.0179781354963779449 -0.153539597988128662
-0.122617483139038086 -0.325654208660125732 -0.153525099158287048
0.172064065933227539 0.128543630242347717 -0.15312078595161438
-0.0157664157450199127 -0.192467242479324341 -0.152658402919769287
-0.0159891359508037567 -0.24424193799495697 -0.152266457676887512
-0.137615159153938293 -0.0825558751821517944 -0.151976987719535828
-0.0978425294160842896 -0.371825993061065674 -0.151752203702926636
-0.0154015542939305305 -0.107895746827125549 -0.151703685522079468
-0.143439292907714844 -0.248855113983154297 -0.151663318276405334
-0.0905662178993225098 -0.371825993061065674 -0.151585310697555542
-0.134915858507156372 0.113276302814483643 -0.15124233067035675
-0.168620705604553223 -0.334199368953704834 -0.151090547442436218
-0.166205450892448425 -0.333430558443069458 -0.151002377271652222
-0.116440996527671814 0.290664821863174438 -0.150307998061180115
-0.138878732919692993 -0.0627526417374610901 -0.150176003575325012
-0.116440996527671814 0.312427878379821777 -0.149701312184333801
-0.153665289282798767 -0.272926598787307739 -0.148107409477233887
-0.0224150661379098892 -0.368757545948028564 -0.148072034120559692
-0.116442002356052399 0.0746196433901786804 -0.147649049758911133
0.1677970290184021 -0.107745185494422913 -0.147610589861869812
-0.0161308441311120987 -0.277168929576873779 -0.147106945514678955
-0.0152625655755400658 -0.0755767151713371277 -0.14663262665271759
-0.166270866990089417 0.119264043867588043 -0.146189033985137939
-0.014486284926533699 0.329308539628982544 -0.145287930965423584
-0.0215299483388662338 -0.364807695150375366 -0.145030826330184937
0.0859264731407165527 -0.353475421667098999 -0.144933313131332397
-0.144875288009643555 0.118365488946437836 -0.143442884087562561
-0.0152413807809352875 -0.0637946575880050659 -0.143203422427177429
-0.0609262287616729736 0.371473193168640137 -0.142967596650123596
0.0580060370266437531 0.12632925808429718 -0.142945617437362671
-0.165230900049209595 -0.33339846134185791 -0.142904952168464661
-0.0210255272686481476 0.362615257501602173 -0.142574980854988098
-0.0773457139730453491 0.3711395263671875 -0.1425352543592453
0.0625181496143341064 0.346691012382507324 -0.142523437738418579
-0.0146674429997801781 0.0623830705881118774 -0.142099738121032715
-0.116442002356052399 -0.235216900706291199 -0.141697794198989868
-0.116442002356052399 -0.0986860319972038269 -0.140981569886207581
-0.156685486435890198 -0.0613670013844966888 -0.140964910387992859
-0.144066691398620605 -0.268054693937301636 -0.140365138649940491
-0.140293672680854797 0.25931161642074585 -0.139559745788574219
-0.116440996527671814 0.272699534893035889 -0.138679295778274536
0.0597314275801181793 -0.113366752862930298 -0.13851436972618103
-0.0149890277534723282 -0.0121039403602480888 -0.138276815414428711
-0.116441704332828522 -0.201937481760978699 -0.138094231486320496
0.173052385449409485 -0.113807477056980133 -0.13801044225692749
-0.0139922713860869408 0.219114303588867188 -0.137747913599014282
-0.137940600514411926 -0.0648089349269866943 -0.137594565749168396
-0.105713784694671631 -0.371825993061065674 -0.137040257453918457
-0.155136421322822571 -0.333323627710342407 -0.136509642004966736
-0.0219053775072097778 -0.367247194051742554 -0.136099129915237427
0.171653285622596741 0.128610983490943909 -0.135957822203636169
0.0702337548136711121 -0.115268297493457794 -0.135801047086715698
0.0849434435367584229 -0.356096357107162476 -0.13571484386920929
-0.172742322087287903 -0.345389664173126221 -0.135642468929290771
-0.0157901272177696228 -0.19797709584236145 -0.135420963168144226
-0.147268429398536682 -0.271505147218704224 -0.134285926818847656
0.0634633079171180725 0.35557246208190918 -0.133925527334213257
-0.116442002356052399 0.178073152899742126 -0.133283272385597229
-0.0206130575388669968 -0.342502415180206299 -0.13280060887336731
-0.0147250005975365639 0.0490102730691432953 -0.13271370530128479
-0.153623178601264954 -0.0613670982420444489 -0.130985438823699951
-0.131898209452629089 0.268759310245513916 -0.130895406007766724
-0.138888105750083923 0.117384620010852814 -0.130519747734069824
0.0775508955121040344 -0.342456281185150146 -0.130103424191474915
-0.145309656858444214 -0.371825993061065674 -0.129623189568519592
-0.0149425137788057327 -0.00127638468984514475 -0.129315406084060669
-0.0159395299851894379 -0.232715249061584473 -0.128911763429641724
0.0578999780118465424 0.128047138452529907 -0.128672242164611816
-0.0144361034035682678 0.116091132164001465 -0.128166332840919495
-0.143318101763725281 -0.0613205954432487488 -0.127099096775054932
-0.165489256381988525 -0.371289283037185669 -0.126189082860946655
-0.0168281272053718567 0.334662646055221558 -0.126148179173469543
0.059787161648273468 -0.113250359892845154 -0.126027882099151611
-0.14733317494392395 -0.246746137738227844 -0.125354751944541931
0.0818153321743011475 0.356313794851303101 -0.125157594680786133
-0.0148929841816425323 0.0101991817355155945 -0.125142872333526611
-0.0145926279947161674 0.0797437578439712524 -0.124607674777507782
0.0616122893989086151 -0.110339067876338959 -0.124605782330036163
-0.135261222720146179 0.0964575633406639099 -0.124504871666431427
-0.0223989244550466537 0.371450453996658325 -0.123357266187667847
-0.162759751081466675 0.271561235189437866 -0.123343870043754578
-0.0155024351552128792 -0.0555672161281108856 -0.123056791722774506
-0.0144441947340965271 0.114211149513721466 -0.122693128883838654
-0.016033640131354332 -0.254582434892654419 -0.122441649436950684
-0.171472057700157166 -0.360272824764251709 -0.122287102043628693
-0.102668598294258118 -0.371825993061065674 -0.122188962996006012
0.0589085407555103302 0.131117045879364014 -0.121984712779521942
-0.0160659495741128922 -0.262089639902114868 -0.121878959238529205
-0.164981871843338013 -0.333390235900878906 -0.121577918529510498
-0.0161040779203176498 -0.270949274301528931 -0.119632095098495483
-0.148854240775108337 -0.272510051727294922 -0.119446031749248505
-0.17049899697303772 -0.336488872766494751 -0.118513531982898712
-0.0985196530818939209 0.371769905090332031 -0.117826744914054871
-0.0208094604313373566 0.354920119047164917 -0.117774032056331635
-0.13263489305973053 0.264177858829498291 -0.117629893124103546
-0.0432037636637687683 0.371884912252426147 -0.117503933608531952
-0.138082042336463928 -0.0850227698683738708 -0.117308616638183594
-0.0146788535639643669 0.0597261302173137665 -0.117109082639217377
-0.165673717856407166 -0.371080249547958374 -0.116244487464427948
-0.0159424562007188797 -0.23339506983757019 -0.115881688892841339
-0.132614165544509888 0.275897085666656494 -0.115481756627559662
-0.142568901181221008 -0.253875702619552612 -0.114718005061149597
-0.0146051384508609772 0.0768319591879844666 -0.113696828484535217
-0.131039336323738098 -0.332806646823883057 -0.113451093435287476
0.163509204983711243 -0.0301805846393108368 -0.112858332693576813
-0.143897950649261475 -0.248291239142417908 -0.112844772636890411
-0.137621596455574036 -0.333333075046539307 -0.112728901207447052
0.0615348704159259796 0.0367599464952945709 -0.112141929566860199
0.0620211884379386902 -0.0540298484265804291 -0.112128779292106628
0.0622003190219402313 -0.0628644376993179321 -0.112119570374488831
-0.0893491283059120178 0.370986014604568481 -0.111990496516227722
-0.0162668135017156601 -0.308752775192260742 -0.111981280148029327
-0.146018177270889282 0.259270310401916504 -0.111902251839637756
0.0627051815390586853 -0.0200580805540084839 -0.111584551632404327
-0.116440996527671814 0.251600205898284912 -0.11134541779756546
-0.116442002356052399 0.172150060534477234 -0.111342303454875946
-0.166910246014595032 0.114891685545444489 -0.111142672598361969
0.162762805819511414 -0.0565237440168857574 -0.11105085164308548
-0.116441324353218079 0.152422487735748291 -0.110996514558792114
0.0619322173297405243 0.0994902104139328003 -0.110766008496284485
0.110114581882953644 -0.116658225655555725 -0.110263451933860779
0.170131072402000427 -0.0421840772032737732 -0.109986118972301483
-0.116440996527671814 0.318283736705780029 -0.109969444572925568
-0.094002068042755127 0.370986282825469971 -0.109678663313388824
-0.0378070138394832611 -0.371825993061065674 -0.1092110276222229
0.0633681416511535645 -0.0778906941413879395 -0.109175242483615875
0.162172973155975342 -0.0315867476165294647 -0.108417168259620667
-0.0151907410472631454 0.173072829842567444 -0.10760314017534256
0.155837699770927429 0.120238520205020905 -0.107214778661727905
-0.144270539283752441 -0.268644332885742188 -0.107061952352523804
-0.136020898818969727 0.0935970023274421692 -0.106890194118022919
-0.151042982935905457 -0.246191233396530151 -0.106693170964717865
-0.162699922919273376 0.266412824392318726 -0.106476821005344391
-0.102536126971244812 -0.371825993061065674 -0.106243379414081573
0.0993128865957260132 0.131616100668907166 -0.106207452714443207
-0.0208148900419473648 0.360294878482818604 -0.105604477226734161
0.161367252469062805 0.0740046277642250061 -0.105296514928340912
-0.0136338742449879646 0.324252963066101074 -0.105250999331474304
-0.0153782917186617851 -0.102469757199287415 -0.104955390095710754
-0.137313783168792725 -0.074789583683013916 -0.104527980089187622
0.0625110268592834473 0.103099726140499115 -0.104461811482906342
0.060715995728969574 0.0230762884020805359 -0.104383952915668488
0.160852298140525818 0.11356654018163681 -0.103673897683620453
-0.137320235371589661 -0.0714747384190559387 -0.102927364408969879
-0.121735543012619019 -0.323640346527099609 -0.102907001972198486
0.0605608448386192322 0.0517518855631351471 -0.102898381650447845
-0.0491765476763248444 -0.371825993061065674 -0.102527394890785217
0.0632645636796951294 0.0278165265917778015 -0.101882815361022949
0.143768012523651123 -0.116201229393482208 -0.101828955113887787
0.0853137373924255371 -0.346965581178665161 -0.101534396409988403
0.172219932079315186 0.130493536591529846 -0.101363383233547211
-0.166185364127159119 0.104427039623260498 -0.101358868181705475
-0.124017082154750824 -0.328850895166397095 -0.101255185902118683
0.131602853536605835 0.132871568202972412 -0.100872352719306946
-0.0211669541895389557 -0.35899391770362854 -0.100490182638168335
0.080678693950176239 -0.11673920601606369 -0.10045594722032547
-0.0296466369181871414 -0.37168392539024353 -0.100261874496936798
0.127869218587875366 0.133776336908340454 -0.0991728752851486206
-0.144344627857208252 -0.247612372040748596 -0.0979726314544677734
-0.0158617198467254639 -0.214635699987411499 -0.0978995710611343384
0.130853503942489624 -0.107897363603115082 -0.0976339727640151978
0.0621719025075435638 0.351990252733230591 -0.0973194539546966553
-0.0146130872890353203 0.100736923515796661 -0.0969194322824478149
-0.114881888031959534 0.371957302093505859 -0.0965527817606925964
0.0634237155318260193 -0.0194974802434444427 -0.0964818298816680908
0.162234663963317871 -0.00141061563044786453 -0.0964584499597549438
-0.0137670617550611496 0.271335840225219727 -0.0963379889726638794
-0.0135642187669873238 0.318958669900894165 -0.0960267707705497742
0.161476925015449524 0.133467897772789001 -0.096011526882648468
-0.116440996527671814 0.273253798484802246 -0.0959012433886528015
0.161623924970626831 0.109842963516712189 -0.0958929508924484253
0.133855655789375305 -0.108916796743869781 -0.0955891907215118408
-0.17207692563533783 -0.35375213623046875 -0.0952663421630859375
0.0770277678966522217 -0.342407256364822388 -0.0950768068432807922
0.160619392991065979 -0.117889337241649628 -0.0950720086693763733
-0.163365960121154785 0.0933812633156776428 -0.0948540046811103821
0.1628580242395401 -0.0358224809169769287 -0.093993164598941803
-0.0152624035254120827 -0.0753801912069320679 -0.0939786434173583984
-0.0152314770966768265 -0.0665148720145225525 -0.0936291664838790894
0.083723999559879303 -0.343971490859985352 -0.0934698805212974548
0.172301709651947021 -0.0442463792860507965 -0.0934259146451950073
0.130725264549255371 0.133337616920471191 -0.0934184640645980835
0.0849626734852790833 -0.110331445932388306 -0.0930025428533554077
-0.0161948166787624359 -0.292034000158309937 -0.0924899876117706299
-0.015089111402630806 -0.0353701785206794739 -0.0924608707427978516
-0.116442002356052399 -0.200387880206108093 -0.0924028083682060242
-0.146195665001869202 0.286043643951416016 -0.092211402952671051
0.133994460105895996 0.123922385275363922 -0.0921794846653938293
-0.163355439901351929 -0.245583847165107727 -0.0918466001749038696
-0.0149317700415849686 0.109344311058521271 -0.0915417894721031189
-0.166568130254745483 -0.061149008572101593 -0.091019555926322937
-0.116440996527671814 0.309534937143325806 -0.0906045511364936829
0.164172530174255371 0.0339991897344589233 -0.0905529409646987915
0.0604575686156749725 0.0656547993421554565 -0.0903780236840248108
-0.0410203337669372559 -0.371825993061065674 -0.0898459255695343018
-0.116441890597343445 0.210488930344581604 -0.0895629897713661194
0.123564772307872772 0.125100001692771912 -0.0893624871969223022
-0.0139826582744717598 0.221385210752487183 -0.0893573388457298279
-0.17000994086265564 -0.365976780652999878 -0.0893014222383499146
-0.0143737625330686569 0.209964275360107422 -0.0889775678515434265
-0.0137617625296115875 0.272566348314285278 -0.0889092907309532166
-0.116441890597343445 -0.0624890513718128204 -0.0888785272836685181
-0.163330242037773132 -0.245583817362785339 -0.0873756557703018188
-0.155796393752098083 -0.245959222316741943 -0.0867327004671096802
-0.0140403909608721733 0.217631891369819641 -0.0865125358104705811
-0.116441935300827026 0.122423693537712097 -0.0862059071660041809
0.0832326561212539673 -0.118271090090274811 -0.0861096754670143127
-0.116440996527671814 0.285387575626373291 -0.0860362499952316284
0.0959839746356010437 0.125432729721069336 -0.0859949290752410889
0.158607214689254761 -0.113555125892162323 -0.08583841472864151
0.172249898314476013 0.0251933485269546509 -0.0857964679598808289
0.166436493396759033 0.0979562774300575256 -0.085605032742023468
0.134044051170349121 0.125519305467605591 -0.0853644013404846191
0.0819067135453224182 0.35630306601524353 -0.0853586718440055847
-0.136546552181243896 0.283498764038085938 -0.0853112116456031799
0.0631406977772712708 0.00571196246892213821 -0.0851710736751556396
0.0672262981534004211 -0.118576698005199432 -0.0851455032825469971
0.168386146426200867 0.131518423557281494 -0.0849450677633285522
0.16675470769405365 0.10090656578540802 -0.0849393382668495178
-0.145299538969993591 0.0902381613850593567 -0.0841712877154350281
-0.161926567554473877 0.280965149402618408 -0.0840724334120750427
0.172788649797439575 -0.0264614615589380264 -0.0838403776288032532
-0.0160920191556215286 -0.268147498369216919 -0.0837840065360069275
0.167865514755249023 0.00020564490114338696 -0.0837478116154670715
0.172866150736808777 -0.0366884991526603699 -0.0833932235836982727
0.139229610562324524 0.125489294528961182 -0.0833810865879058838
0.0987632200121879578 -0.118138335645198822 -0.0831732749938964844
0.0722787529230117798 -0.343046665191650391 -0.0831350013613700867
0.173286467790603638 -0.106655135750770569 -0.0830999091267585754
-0.0260683726519346237 -0.371422529220581055 -0.08307667076587677
0.0634038224816322327 -0.0533918030560016632 -0.0824441686272621155
0.0724585503339767456 -0.118394285440444946 -0.0822847262024879456
-0.168963074684143066 -0.247805923223495483 -0.0821114704012870789
0.0795551687479019165 0.125096306204795837 -0.0820545777678489685
0.0872258692979812622 -0.118201814591884613 -0.0815167129039764404
0.159911647439002991 -0.117858231067657471 -0.0811036154627799988
-0.0149042773991823196 0.0960944369435310364 -0.0807959884405136108
0.0680821314454078674 -0.350523859262466431 -0.0806316956877708435
-0.17072451114654541 -0.339752227067947388 -0.0804882422089576721
-0.137743845582008362 -0.0832358449697494507 -0.0803999453783035278
0.0641946643590927124 0.114134691655635834 -0.0799562036991119385
-0.133561268448829651 -0.333350628614425659 -0.0796188265085220337
0.0606190599501132965 0.0392935089766979218 -0.079366050660610199
-0.0135939056053757668 0.311547189950942993 -0.0790927708148956299
-0.0729964300990104675 -0.371825993061065674 -0.0790683478116989136
-0.0151736270636320114 -0.0499858222901821136 -0.0787662193179130554
0.0682921558618545532 0.12139488011598587 -0.0778557732701301575
0.0655908361077308655 -0.0177542027086019516 -0.077427394688129425
0.0966539382934570312 0.124299012124538422 -0.077241942286491394
0.0610659420490264893 -0.045497700572013855 -0.0763428881764411926
-0.0188408754765987396 0.339812308549880981 -0.0761288702487945557
0.0617428980767726898 -0.0869081243872642517 -0.0755696296691894531
-0.0150130521506071091 -0.0177093688398599625 -0.0752087906002998352
0.16443316638469696 -0.0649552866816520691 -0.0750830993056297302
0.11672656238079071 0.132647007703781128 -0.0749386996030807495
0.0677729323506355286 0.103611916303634644 -0.0746888592839241028
-0.170537471771240234 -0.338446915149688721 -0.0744367688894271851
0.0838832706212997437 0.342646896839141846 -0.0744252428412437439
0.0699213966727256775 -0.107946813106536865 -0.074339546263217926
0.172679901123046875 -0.0542831942439079285 -0.0741976648569107056
-0.116440996527671814 0.266430050134658813 -0.0737552642822265625
0.0616497993469238281 -0.0605029389262199402 -0.0731457620859146118
0.0616292990744113922 0.126435443758964539 -0.0731319710612297058
-0.171118676662445068 -0.0756864100694656372 -0.0729326307773590088
-0.116442002356052399 -0.262985706329345703 -0.0722920447587966919
-0.0374736711382865906 0.371974468231201172 -0.0722730010747909546
-0.0158633533865213394 -0.215015143156051636 -0.0722227469086647034
-0.116441205143928528 0.125556409358978271 -0.0719487667083740234
0.156265497207641602 -0.117353759706020355 -0.0714537128806114197
-0.150540009140968323 0.366040289402008057 -0.0713099837303161621
0.069925062358379364 0.130438163876533508 -0.0713078305125236511
0.0831886827945709229 -0.356825560331344604 -0.0712194889783859253
0.158605501055717468 0.0645572841167449951 -0.0711290538311004639
0.170794650912284851 0.00373375159688293934 -0.0710903480648994446
0.0818842798471450806 0.118786215782165527 -0.0710510909557342529
0.157326295971870422 -0.00474715931341052055 -0.0703536272048950195
0.14032880961894989 -0.103764750063419342 -0.0701959356665611267
-0.0147219235077500343 0.0497003607451915741 -0.0699376612901687622
0.0787123516201972961 0.0444648899137973785 -0.0698575302958488464
-0.0155417798087000847 -0.0726415142416954041 -0.0698305442929267883
-0.015783313661813736 -0.0963922366499900818 -0.069283410906791687
0.169051870703697205 0.0640796571969985962 -0.0692597702145576477
0.0945273786783218384 -0.0895816907286643982 -0.069083385169506073
0.0925680026412010193 0.100996904075145721 -0.0690833777189254761
0.0931916311383247375 -0.0702629014849662781 -0.0690833702683448792
0.0930194705724716187 0.0913689583539962769 -0.0690833702683448792
0.0979480519890785217 0.0772721916437149048 -0.0690833181142807007
0.14185921847820282 -0.0467405170202255249 -0.0690833032131195068
0.129867613315582275 -0.03003704734146595 -0.0690833032131195068
0.132700502872467041 -0.00878580380231142044 -0.0690833032131195068
0.123877152800559998 -0.0084987543523311615 -0.0690833032131195068
0.112372018396854401 -0.00667436327785253525 -0.0690833032131195068
0.135903939604759216 0.0302446242421865463 -0.0690833032131195068
0.0991739034652709961 0.0605137236416339874 -0.0690833032131195068
0.13260902464389801 0.101237781345844269 -0.0690833032131195068
0.14100337028503418 -0.0912740603089332581 -0.0690824612975120544
0.0896197035908699036 0.0809785947203636169 -0.0690822750329971313
0.0893313288688659668 0.0738468244671821594 -0.0690819844603538513
0.148796156048774719 -0.0624382458627223969 -0.0690816938877105713
0.0870017409324645996 0.0117623358964920044 -0.0690795630216598511
0.164915502071380615 -0.115851402282714844 -0.0689043104648590088
-0.116440996527671814 0.310978889465332031 -0.0688049346208572388
-0.133813902735710144 0.106273949146270752 -0.0687495619058609009
-0.154272407293319702 -0.089893147349357605 -0.0675981119275093079
-0.116440996527671814 0.268329143524169922 -0.0675324425101280212
0.100568205118179321 0.125436216592788696 -0.067487083375453949
0.0821986570954322815 -0.011938760057091713 -0.0674344152212142944
0.098016202449798584 -0.0368032567203044891 -0.0674344003200531006
0.156857535243034363 0.097058422863483429 -0.0674342960119247437
0.0715003833174705505 -0.0596353448927402496 -0.0674146190285682678
0.107812605798244476 -0.0358682796359062195 -0.0674104467034339905
0.110232070088386536 0.125231415033340454 -0.0673933848738670349
0.161241531372070312 0.0712661594152450562 -0.0673798695206642151
0.0727658718824386597 -0.0939886942505836487 -0.0673765018582344055
0.163894519209861755 -0.00258129858411848545 -0.067356407642364502
0.156915396451950073 -0.0341591536998748779 -0.0672471150755882263
0.111937500536441803 -0.0164797231554985046 -0.067243628203868866
0.0855865180492401123 0.0578043162822723389 -0.0671419426798820496
0.109541431069374084 0.0145978992804884911 -0.067140042781829834
0.118265196681022644 -0.0984124541282653809 -0.0669883266091346741
0.101343065500259399 0.0417311154305934906 -0.0668767392635345459
0.118074536323547363 0.0813395753502845764 -0.0668726339936256409
0.0896411538124084473 0.0831849277019500732 -0.0667757019400596619
0.126864120364189148 -0.0317124053835868835 -0.0666662007570266724
0.133086830377578735 -0.0723605751991271973 -0.0664348453283309937
0.103249289095401764 0.110794439911842346 -0.0664345026016235352
-0.116441056132316589 0.0527552813291549683 -0.0663996636867523193
-0.120769701898097992 -0.371825993061065674 -0.0657251328229904175
0.0804515182971954346 -0.35740324854850769 -0.0656557157635688782
-0.161710783839225769 0.263294219970703125 -0.0656260028481483459
-0.163543283939361572 0.0936543270945549011 -0.065210290253162384
-0.171460404992103577 -0.0849807709455490112 -0.0648518949747085571
-0.116440996527671814 0.241136670112609863 -0.0643824487924575806
-0.116440996527671814 0.24936424195766449 -0.0641477853059768677
-0.159634441137313843 -0.0898612290620803833 -0.0636379867792129517
-0.0136381573975086212 0.301265031099319458 -0.0628940090537071228
-0.0159651953727006912 -0.238679036498069763 -0.0628511309623718262
-0.0995464622974395752 0.371782779693603516 -0.0626983419060707092
-0.11486496776342392 0.371949642896652222 -0.0624791085720062256
-0.116440996527671814 0.296131938695907593 -0.0624194145202636719
-0.153718098998069763 0.090201839804649353 -0.0623230747878551483
-0.0752014890313148499 -0.371825993061065674 -0.0620263293385505676
-0.133865073323249817 0.104508385062217712 -0.0615488551557064056
-0.116441860795021057 0.186841920018196106 -0.0614547990262508392
-0.0898605957627296448 -0.371825993061065674 -0.0614542141556739807
-0.154373601078987122 0.335191994905471802 -0.0609117671847343445
-0.138567402958869934 -0.371825993061065674 -0.0607412457466125488
-0.116440996527671814 0.229556366801261902 -0.0606756545603275299
-0.160553932189941406 0.335307002067565918 -0.0604888089001178741
-0.161724284291267395 0.263323128223419189 -0.0602626726031303406
-0.116440996527671814 0.204350128769874573 -0.0599006637930870056
-0.0208126828074455261 0.354058712720870972 -0.059842623770236969
-0.168044760823249817 -0.333593785762786865 -0.0591864846646785736
-0.0148669499903917313 0.0162051282823085785 -0.0586945526301860809
-0.166279390454292297 -0.370200842618942261 -0.0585107281804084778
-0.0199839919805526733 -0.341805547475814819 -0.0583615563809871674
-0.0209572389721870422 0.368545949459075928 -0.0580169335007667542
-0.121498137712478638 -0.323098868131637573 -0.0576690547168254852
-0.0135993864387273788 0.31027376651763916 -0.0570917390286922455
-0.0150255486369132996 0.211473226547241211 -0.0567079484462738037
-0.0157496277242898941 -0.188566088676452637 -0.0565322749316692352
-0.116440996527671814 0.246321603655815125 -0.0564570985734462738
-0.165182396769523621 -0.245585888624191284 -0.0558220036327838898
-0.159965530037879944 -0.333677619695663452 -0.055738445371389389
-0.116440996527671814 0.309390127658843994 -0.0553336776793003082
-0.138219296932220459 -0.0636431276798248291 -0.054865572601556778
-0.116442002356052399 -0.186041772365570068 -0.0548188798129558563
-0.0150240911170840263 -0.0202743168920278549 -0.0546478666365146637
-0.116440996527671814 0.276566863059997559 -0.0545212328433990479
-0.0137388566508889198 0.277873992919921875 -0.0543313995003700256
-0.138303980231285095 -0.0861954763531684875 -0.0538418889045715332
-0.116440996527671814 0.245371654629707336 -0.0536868125200271606
0.0861296504735946655 -0.349106281995773315 -0.052594449371099472
-0.13359224796295166 0.262584984302520752 -0.051655251532793045
-0.133906841278076172 0.279822766780853271 -0.0514956824481487274
-0.169015213847160339 -0.0637060105800628662 -0.0514156743884086609
-0.116442002356052399 0.0293198507279157639 -0.0506003759801387787
-0.016226520761847496 -0.299400448799133301 -0.0505470819771289825
-0.0174407903105020523 -0.122786201536655426 -0.0497325919568538666
-0.0160532202571630478 -0.259131968021392822 -0.0495364703238010406
-0.0160585585981607437 -0.2603721022605896 -0.0494261458516120911
-0.16275690495967865 0.271316409111022949 -0.0492578335106372833
-0.0136470291763544083 0.299203783273696899 -0.0484341569244861603
-0.015159989707171917 0.180200383067131042 -0.0481372810900211334
-0.141810342669487 0.25930023193359375 -0.0472284480929374695
-0.166872844099998474 0.116303823888301849 -0.0471025407314300537
-0.116258285939693451 -0.0820221155881881714 -0.0448569692671298981
-0.136457711458206177 -0.333368510007858276 -0.0441688299179077148
-0.116442002356052399 0.0928638800978660583 -0.0438905432820320129
0.0805631205439567566 -0.357406795024871826 -0.0437469109892845154
-0.116442002356052399 0.113552391529083252 -0.042932465672492981
-0.0151387955993413925 0.18512493371963501 -0.0423471704125404358
-0.116440996527671814 0.28954431414604187 -0.0423056073486804962
0.0862029865384101868 -0.349812358617782593 -0.0408663563430309296
-0.169547125697135925 -0.0645963847637176514 -0.0406441837549209595
-0.127210319042205811 0.371714204549789429 -0.0403980985283851624
0.0672960579395294189 0.356272131204605103 -0.0399490073323249817
-0.0152339600026607513 -0.0677458718419075012 -0.0396481119096279144
-0.0158625487238168716 -0.2148284912109375 -0.0394905023276805878
0.072994716465473175 -0.342821270227432251 -0.0393684431910514832
-0.137395739555358887 -0.0775640606880187988 -0.0379133112728595734
0.0711034238338470459 -0.356456279754638672 -0.0378745086491107941
-0.0136514520272612572 0.29817625880241394 -0.0372108146548271179
-0.0151209887117147446 -0.0427794642746448517 -0.0368807762861251831
-0.15202660858631134 0.119367949664592743 -0.0365934893488883972
-0.156815484166145325 0.090235196053981781 -0.0363419577479362488
-0.14435867965221405 0.0902490168809890747 -0.0350634753704071045
-0.14259888231754303 -0.260524630546569824 -0.0346948243677616119
-0.137854114174842834 -0.0652197450399398804 -0.032753288745880127
-0.133806422352790833 0.279674321413040161 -0.0324967913329601288
-0.0162694267928600311 -0.30935823917388916 -0.0322663858532905579
-0.114122763276100159 -0.371825993061065674 -0.0318434163928031921
-0.116440996527671814 0.277979910373687744 -0.0318221449851989746
-0.0151153542101383209 -0.0414769463241100311 -0.0312409233301877975
-0.0151742231100797653 0.0257502533495426178 -0.0285434238612651825
-0.110771611332893372 0.371942788362503052 -0.028326917439699173
-0.116089910268783569 -0.0480022244155406952 -0.0282711666077375412
-0.0152499210089445114 -0.0631270632147789001 -0.0278105828911066055
-0.0153802782297134399 0.129014432430267334 -0.0277057215571403503
-0.147096037864685059 -0.333934485912322998 -0.0274679269641637802
-0.116441980004310608 0.0124130323529243469 -0.0272339247167110443
-0.153761103749275208 0.286725372076034546 -0.0268241129815578461
-0.145222947001457214 0.118826150894165039 -0.0244600679725408554
-0.0146313710138201714 0.249412968754768372 -0.0240327157080173492
-0.116440996527671814 0.228089496493339539 -0.0238437298685312271
-0.12030290812253952 -0.320373952388763428 -0.0235793367028236389
-0.116440996527671814 -0.117679096758365631 -0.0231432020664215088
-0.155333474278450012 0.357374221086502075 -0.0227425582706928253
-0.169457077980041504 -0.24973025918006897 -0.0222162045538425446
-0.0688924938440322876 0.371600925922393799 -0.0218393225222826004
-0.116440996527671814 0.238177672028541565 -0.0215624067932367325
-0.133945196866989136 0.101744472980499268 -0.020565081387758255
-0.141012579202651978 0.118244245648384094 -0.0205272380262613297
-0.166289672255516052 0.11901237815618515 -0.0204605292528867722
-0.0156278200447559357 0.0730386674404144287 -0.0192551426589488983
0.0863632038235664368 0.348299503326416016 -0.0191581174731254578
-0.116442002356052399 0.14662681519985199 -0.0188783127814531326
-0.116442002356052399 0.078893907368183136 -0.0188115499913692474
-0.116440996527671814 0.307931423187255859 -0.0187068022787570953
-0.0214988570660352707 -0.35851326584815979 -0.0180278755724430084
-0.171420380473136902 -0.257417052984237671 -0.017705695703625679
-0.165943443775177002 -0.370628654956817627 -0.0176340769976377487
-0.11643703281879425 -0.287887394428253174 -0.0173264984041452408
-0.13518369197845459 0.282419949769973755 -0.0171445645391941071
-0.0729590728878974915 -0.371825993061065674 -0.0169255342334508896
-0.015726940706372261 -0.183317810297012329 -0.0166790112853050232
-0.116440996527671814 0.281088322401046753 -0.0162047166377305984
-0.141667023301124573 -0.333823204040527344 -0.0161919873207807541
-0.116440996527671814 -0.120777137577533722 -0.0157392024993896484
-0.0133632887154817581 0.27531886100769043 -0.014557497575879097
-0.116440996527671814 0.177598342299461365 -0.0141193568706512451
-0.0160103719681501389 -0.243886426091194153 -0.0140333827584981918
-0.170180618762969971 -0.36458626389503479 -0.0138989146798849106
-0.118371866643428802 0.329719692468643188 -0.0136238504201173782
-0.116440996527671814 -0.0993995815515518188 -0.0127464048564434052
-0.0140534322708845139 0.217525169253349304 -0.012551608495414257
-0.116440996527671814 0.269760102033615112 -0.0122205670922994614
-0.117464281618595123 0.371970564126968384 -0.011758715845644474
-0.116440996527671814 0.226865440607070923 -0.0112596312537789345
-0.11644195020198822 0.106719955801963806 -0.0112129077315330505
-0.116440996527671814 0.245255216956138611 -0.0106604238972067833
-0.1164417564868927 0.102181568741798401 -0.0102326972410082817
-0.116442002356052399 0.127724558115005493 -0.0096096014603972435
-0.141341835260391235 0.335191994905471802 -0.00958095584064722061
0.0661363676190376282 0.341764897108078003 -0.00957950949668884277
-0.116442002356052399 0.130400419235229492 -0.00816308055073022842
-0.161078363656997681 0.119246423244476318 -0.00703631946817040443
0.0875098854303359985 0.354166299104690552 -0.00644825445488095284
-0.116435684263706207 -0.292120397090911865 -0.00641823513433337212
-0.133736342191696167 0.280215173959732056 -0.00629521207883954048
-0.148071423172950745 0.0902061760425567627 -0.00603433698415756226
-0.0154190817847847939 -0.103221558034420013 -0.00563774444162845612
-0.170199811458587646 -0.0667608603835105896 -0.0053715086542069912
-0.155780836939811707 0.286472111940383911 -0.00505489995703101158
-0.0152917411178350449 -0.0631783455610275269 -0.00501179229468107224
-0.0145776970311999321 -0.1744118332862854 -0.00492588942870497704
-0.116009317338466644 -0.00316724786534905434 -0.0036148198414593935
-0.116441294550895691 0.119237408041954041 -0.00323587330058217049
-0.0142504563555121422 -0.280280321836471558 -0.00319348368793725967
-0.0431968234479427338 0.371988952159881592 -0.00280969636514782906
-0.11644185334444046 0.183944746851921082 -0.00251775025390088558
-0.00986120663583278656 0.168921217322349548 -0.00245766877196729183
-0.00958388112485408783 -0.0150667494162917137 -0.00241425842978060246
-0.116440996527671814 -0.0766488239169120789 -0.00225104019045829773
-0.0128867803141474724 -0.18112531304359436 -0.000931164133362472057
-0.01370979193598032 -0.0894967764616012573 -0.000673464266583323479
-0.134141504764556885 0.109243340790271759 -0.000635800417512655258
-0.0137028768658638 -0.114123106002807617 -0.000528331904206424952
-0.0137487687170505524 -0.131555348634719849 -0.000508785364218056202
-0.00855674315243959427 0.0901916325092315674 -0.000429834297392517328
-0.116440996527671814 -0.095871269702911377 -0.000230814446695148945
-0.161855727434158325 0.119211569428443909 -8.32086298032663763e-05
-0.100504904985427856 0.371639847755432129 0.000289558025542646646
-0.011765570379793644 -0.0917971804738044739 0.00118617888074368238
-0.0115485647693276405 -0.0640239343047142029 0.0012331430334597826
-0.116442002356052399 -0.254368603229522705 0.00158383883535861969
-0.116441518068313599 0.178356066346168518 0.00166897813323885202
-0.0495764166116714478 -0.371825993061065674 0.00199524592608213425
-0.0738178864121437073 -0.371825993061065674 0.00208652508445084095
-0.137448921799659729 -0.07028217613697052 0.00235370500013232231
-0.00435649976134300232 0.237641453742980957 0.00251408200711011887
-0.116440996527671814 -0.117908626794815063 0.00275856838561594486
-0.00710990745574235916 -0.0590737760066986084 0.00276184617541730404
-0.116440996527671814 0.108358338475227356 0.00289402739144861698
0.0645734667778015137 -0.335578173398971558 0.00297398190014064312
-0.167726218700408936 -0.0615894794464111328 0.00329190678894519806
-0.00184030889067798853 0.281477242708206177 0.00392252905294299126
-0.00468530040234327316 -0.233972683548927307 0.00400967244058847427
-0.000934950017835944891 0.125085368752479553 0.00452165259048342705
-0.00397900538519024849 0.361015796661376953 0.00467274105176329613
-0.100811243057250977 0.371518850326538086 0.00473518436774611473
-0.000448915991000831127 -0.190048143267631531 0.004991146270185709
0.106690801680088043 0.355586647987365723 0.00505043705925345421
0.0118778683245182037 -0.243593096733093262 0.00510528869926929474
0.0294556338340044022 -0.34181484580039978 0.00510529568418860435
0.0159513968974351883 -0.171153143048286438 0.0051052984781563282
0.0327768325805664062 -0.33679276704788208 0.00510529987514019012
0.0593126304447650909 -0.2936878502368927 0.00510529987514019012
0.0783642083406448364 -0.288714319467544556 0.00510529987514019012
0.0250505078583955765 -0.27518269419670105 0.00510529987514019012
0.080816321074962616 -0.26898530125617981 0.00510529987514019012
0.074091888964176178 -0.268409460783004761 0.00510529987514019012
0.100245200097560883 -0.263670086860656738 0.00510529987514019012
0.0591976568102836609 -0.234078779816627502 0.00510529987514019012
0.0655535832047462463 -0.227741852402687073 0.00510529987514019012
0.0259733535349369049 -0.21771317720413208 0.00510529987514019012
0.0679434910416603088 -0.212188377976417542 0.00510529987514019012
0.0887879505753517151 -0.173895299434661865 0.00510529987514019012
0.0492783486843109131 -0.157183542847633362 0.00510529987514019012
0.0476358868181705475 -0.154311910271644592 0.00510529987514019012
0.0524150766432285309 -0.147097676992416382 0.00510529987514019012
0.0646491721272468567 -0.137272894382476807 0.00510529987514019012
