ply
format ascii 1.0
element vertex 725
property float x
property float y
property float z
end_header
0.235482200980186462 -0.0884418711066246033 -0.0123032089322805405
0.226681888103485107 0.22398693859577179 -0.0122278193011879921
-0.156323477625846863 0.215349584817886353 -0.0121812857687473297
0.233811050653457642 0.0226990468800067902 -0.0117322681471705437
0.0783222541213035583 0.21441204845905304 -0.0113914599642157555
0.243615403771400452 0.0197501759976148605 -0.0113274445757269859
-0.149028852581977844 0.222433298826217651 -0.0112483138218522072
0.131180375814437866 0.22246900200843811 -0.010949430987238884
0.180458277463912964 0.222121179103851318 -0.0106564918532967567
0.243261590600013733 0.0621344521641731262 -0.0103031685575842857
-0.236086994409561157 0.221553236246109009 -0.0101756658405065536
-0.0225547514855861664 0.220951870083808899 -0.00967184454202651978
0.162756726145744324 0.21215549111366272 -0.00948471855372190475
0.16120438277721405 0.21149858832359314 -0.00892872735857963562
0.241319090127944946 -0.00456774653866887093 -0.00876687560230493546
0.240835100412368774 -0.0609430335462093353 -0.00848862249404191971
-0.261069595813751221 0.213015049695968628 -0.00819985102862119675
0.0217903424054384232 0.210312500596046448 -0.00792485103011131287
-0.16507372260093689 0.218685969710350037 -0.00786390993744134903
0.158846169710159302 0.218722641468048096 -0.00779476296156644821
0.2404937744140625 0.00620661536231637001 -0.007601145189255476
0.0364350862801074982 0.218475788831710815 -0.00758690247312188148
-0.246766641736030579 0.20985923707485199 -0.00754177244380116463
-0.0360129773616790771 0.209803208708763123 -0.00749380234628915787
0.232340499758720398 0.085808880627155304 -0.00745480973273515701
-0.0379673205316066742 0.209422409534454346 -0.00717253703624010086
-0.156950041651725769 0.217184931039810181 -0.00649702595546841621
0.0973858088254928589 0.207764863967895508 -0.00577678065747022629
-0.0629486143589019775 0.216277971863746643 -0.00572959193959832191
-0.0769787728786468506 0.215870305895805359 -0.00538454949855804443
-0.187621086835861206 0.215576797723770142 -0.0051351720467209816
0.228963583707809448 -0.00611176760867238045 -0.00479087745770812035
0.229308426380157471 -0.0730069726705551147 -0.00467372359707951546
-0.15075211226940155 0.214541807770729065 -0.00425933022052049637
0.230115577578544617 0.0883711054921150208 -0.00370436022058129311
0.211496487259864807 0.205158352851867676 -0.00358197814784944057
-0.25304076075553894 0.204556047916412354 -0.00307511491701006889
-0.17367631196975708 0.211910411715507507 -0.00214984314516186714
0.226788520812988281 0.20222240686416626 -0.00111002870835363865
0.236026138067245483 0.0133381607010960579 -0.000960116623900830746
-0.204013392329216003 0.210237279534339905 -0.000934966839849948883
0.128442749381065369 0.210217222571372986 -0.000614480755757540464
-0.240152910351753235 0.209491506218910217 -0.000476470217108726501
0.235391095280647278 -0.0654303804039955139 -0.000445241719717159867
-0.247505888342857361 0.201071679592132568 -0.00014370605640579015
-0.264805197715759277 0.201008468866348267 -8.51391887408681214e-05
0.23492884635925293 -0.0727966800332069397 6.3075865909922868e-05
-0.0909406617283821106 0.200458362698554993 0.000370685738744214177
-0.240615978837013245 0.200433418154716492 0.000391215464333072305
0.232796311378479004 -0.0830369517207145691 0.00133362575434148312
0.0303076133131980896 0.207552105188369751 0.00162967096548527479
0.0454302355647087097 0.198877409100532532 0.00169570220168679953
0.132490083575248718 0.206554502248764038 0.00246967305429279804
0.0720113292336463928 0.206079021096229553 0.00287004746496677399
-0.238616675138473511 0.204685285687446594 0.00311744050122797489
0.126318246126174927 0.19660244882106781 0.00360657484270632267
-0.161254346370697021 0.196371003985404968 0.00380156585015356541
0.185566946864128113 0.196130350232124329 0.00400432432070374489
-0.0514544285833835602 0.195906728506088257 0.00419274438172578812
-0.129709243774414062 0.203534156084060669 0.00424796110019087791
0.0547292307019233704 0.195768728852272034 0.00430900370702147484
0.0239543281495571136 0.204284965991973877 0.00438155326992273331
-0.0977979302406311035 0.203919097781181335 0.00468980893492698669
-0.174841910600662231 0.202627375721931458 0.00481538800522685051
0.154441654682159424 0.19499632716178894 0.00495976069942116737
0.232176095247268677 -0.0434200502932071686 0.00509921135380864143
0.0724011883139610291 0.194062948226928711 0.00574614480137825012
-0.200548499822616577 0.201326444745063782 0.00581754185259342194
-0.0599148236215114594 0.193906858563423157 0.00587765639647841454
-0.268867433071136475 0.202453553676605225 0.00591059867292642593
-0.201032102108001709 0.193154066801071167 0.00651122955605387688
-0.132383614778518677 0.199757307767868042 0.00698824971914291382
-0.251453936100006104 0.191699221730232239 0.00773624982684850693
0.0243804380297660828 0.191686376929283142 0.00774748250842094421
-0.158700540661811829 0.191628560423851013 0.00779601000249385834
0.160359248518943787 0.191054657101631165 0.00827945396304130554
0.0531404800713062286 0.190876126289367676 0.00842978153377771378
0.220724686980247498 0.00376850366592407227 0.00913904793560504913
0.197964116930961609 0.198246359825134277 0.0094666285440325737
0.228011339902877808 -0.0186330359429121017 0.00981556251645088196
-0.0269667748361825943 0.188480213284492493 0.0104477675631642342
0.222015932202339172 0.0537198819220066071 0.0109205124899744987
0.225355967879295349 0.0533361434936523438 0.0109794838353991508
-0.280724912881851196 0.187847033143043518 0.010989755392074585
-0.019919687882065773 0.187733456492424011 0.0110767446458339691
-0.176884591579437256 0.194565251469612122 0.0112594272941350937
0.225370869040489197 -0.0227409079670906067 0.011419893242418766
0.0298858508467674255 0.186980307102203369 0.0117110423743724823
0.222807556390762329 -0.0238869376480579376 0.0118518779054284096
0.221735239028930664 0.0322800800204277039 0.0118889827281236649
0.222110703587532043 0.0193108506500720978 0.0120084164664149284
0.17007957398891449 0.193867817521095276 0.0131544796749949455
0.221301272511482239 0.18513450026512146 0.0132654318585991859
0.153339534997940063 0.184968620538711548 0.0134050566703081131
-0.0775403454899787903 0.193482279777526855 0.0134791340678930283
-0.0877811238169670105 0.183970168232917786 0.0142455697059631348
0.019449625164270401 0.192529663443565369 0.0142813008278608322
0.034920521080493927 0.182088166475296021 0.0158296450972557068
0.0220449231564998627 0.190437436103820801 0.0160431042313575745
0.243517681956291199 0.189509779214859009 0.0168244913220405579
0.151364788413047791 0.180528312921524048 0.0171438027173280716
-0.0200974885374307632 0.180119633674621582 0.0174881778657436371
-0.0927635878324508667 0.188444942235946655 0.0177213028073310852
-0.135822266340255737 0.17955663800239563 0.0179625321179628372
-0.125411570072174072 0.179348990321159363 0.0181374642997980118
0.138207525014877319 0.179250761866569519 0.0182202346622943878
-0.271272480487823486 0.178788661956787109 0.0186094529926776886
0.107804045081138611 0.17865300178527832 0.0187238901853561401
0.0498988032341003418 0.178330451250076294 0.0189956668764352798
-0.286420047283172607 0.185829639434814453 0.0190125163644552231
-0.157041236758232117 0.178269386291503906 0.0190470218658447266
-0.000799968373030424118 0.178190872073173523 0.0191130209714174271
-0.255186349153518677 0.178028196096420288 0.0192500799894332886
0.184761464595794678 0.177709609270095825 0.019518217071890831
0.205810874700546265 0.186251804232597351 0.0195672623813152313
0.272113561630249023 0.186064973473548889 0.0196490362286567688
-0.217665389180183411 0.177475571632385254 0.0197151340544223785
-0.121425226330757141 0.177444472908973694 0.0197417717427015305
-0.288716256618499756 0.177265897393226624 0.0198936741799116135
0.0987509489059448242 0.177020668983459473 0.0200986322015523911
0.236350014805793762 0.184601917862892151 0.0209506861865520477
0.261022835969924927 0.183988615870475769 0.0214645881205797195
-0.106701374053955078 0.182977482676506042 0.0216530244797468185
-0.0269269850105047226 0.173385307192802429 0.0231598261743783951
0.0103882336989045143 0.18137948215007782 0.0236572194844484329
0.268476963043212891 0.172588765621185303 0.0238395147025585175
0.193779170513153076 0.172062590718269348 0.0242737419903278351
0.243393361568450928 0.180027276277542114 0.0247962046414613724
-0.11694452166557312 0.179070144891738892 0.0250936411321163177
0.0501762144267559052 0.178491890430450439 0.0260894596576690674
0.018693411722779274 0.169559821486473083 0.0263812653720378876
-0.206394016742706299 0.168174460530281067 0.027546953409910202
-0.297457665205001831 0.176505059003829956 0.0277510508894920349
0.088469378650188446 0.167787596583366394 0.027873428538441658
0.174452558159828186 0.167606756091117859 0.028025556355714798
0.0637856274843215942 0.16706693172454834 0.0284798480570316315
-0.112379804253578186 0.175511389970779419 0.0285004880279302597
0.137734308838844299 0.174382105469703674 0.0295514483004808426
-0.120277315378189087 0.174296751618385315 0.0296237263828516006
-0.0857935100793838501 0.173324897885322571 0.0304455235600471497
-0.101326413452625275 0.173126861453056335 0.0306129809468984604
0.138977617025375366 0.164500012993812561 0.0306413173675537109
-0.228016793727874756 0.164448827505111694 0.0306842923164367676
0.25081247091293335 0.163865253329277039 0.031176052987575531
-0.196763098239898682 0.172277718782424927 0.0313310101628303528
0.270394891500473022 0.162205964326858521 0.0325960330665111542
-0.295330971479415894 0.162141889333724976 0.0326277390122413635
-0.0387262254953384399 0.170713603496551514 0.0326535068452358246
0.0695311799645423889 0.161948755383491516 0.0327912271022796631
-0.174544855952262878 0.161927029490470886 0.0328092463314533234
0.0278395302593708038 0.170495986938476562 0.0328368246555328369
0.0268318671733140945 0.161842837929725647 0.0328807197511196136
-0.219221010804176331 0.170177444815635681 0.0331053361296653748
-0.180558398365974426 0.170033246278762817 0.0332266949117183685
0.138966023921966553 0.16117328405380249 0.0334465652704238892
-0.299921244382858276 0.160889893770217896 0.0336866006255149841
-0.218589633703231812 0.160759225487709045 0.0337962731719017029
-0.0621528178453445435 0.168898686766624451 0.0341822877526283264
0.0621542744338512421 0.168746873736381531 0.0343101657927036285
0.188530132174491882 0.160063013434410095 0.0343849323689937592
0.269226729869842529 0.168577775359153748 0.0344477854669094086
-0.167144402861595154 0.159749254584312439 0.034650072455406189
-0.0968054085969924927 0.168248176574707031 0.0347303338348865509
0.222587898373603821 0.159628495573997498 0.0347524136304855347
-0.0716840252280235291 0.167926177382469177 0.0350014679133892059
0.207325398921966553 0.158886805176734924 0.0353794023394584656
-0.242749691009521484 0.158674344420433044 0.0355588346719741821
-0.304994165897369385 0.166304647922515869 0.0355626828968524933
-0.0717346221208572388 0.158319279551506042 0.0358584634959697723
0.26074373722076416 0.166523665189743042 0.036182694137096405
0.134005174040794373 0.157412603497505188 0.0366221889853477478
-0.311740607023239136 0.158654555678367615 0.0366702377796173096
-0.284136056900024414 0.157196372747421265 0.0368041433393955231
-0.012013562023639679 0.16553032398223877 0.0370188243687152863
-0.237568452954292297 0.16407322883605957 0.0382453538477420807
-0.191707044839859009 0.155300810933113098 0.0384002476930618286
0.0883291512727737427 0.163718447089195251 0.0385439433157444
0.0156019348651170731 0.163438722491264343 0.0387794002890586853
-0.300314456224441528 0.154820531606674194 0.0388055481016635895
0.0446255393326282501 0.16273905336856842 0.0393683910369873047
0.0867847055196762085 0.154107198119163513 0.03940591961145401
-0.0297745149582624435 0.161556527018547058 0.0403647534549236298
-0.188138782978057861 0.152937442064285278 0.0403912849724292755
0.00825444702059030533 0.151701346039772034 0.0414329543709754944
0.107353717088699341 0.151455938816070557 0.0416398569941520691
0.275842875242233276 0.152610674500465393 0.0417493134737014771
-0.273781150579452515 0.151321962475776672 0.0417526327073574066
-0.00886103324592113495 0.149700909852981567 0.0431156158447265625
-0.263088524341583252 0.157674580812454224 0.0436344295740127563
0.0524114631116390228 0.148197144269943237 0.0443772003054618835
0.00648789014667272568 0.148134559392929077 0.0444297045469284058
0.264521390199661255 0.147618353366851807 0.0448638089001178741
-0.239287987351417542 0.147386595606803894 0.0450571663677692413
0.0419424548745155334 0.146968424320220947 0.045407954603433609
0.121927686035633087 0.14663928747177124 0.045684274286031723
0.139782130718231201 0.145390376448631287 0.0467356517910957336
-0.287763833999633789 0.145198807120323181 0.0468968786299228668
-0.309737235307693481 0.153082683682441711 0.0472334921360015869
-0.154092267155647278 0.144454792141914368 0.0475235991179943085
0.0765516534447669983 0.144274339079856873 0.0476758852601051331
0.215264379978179932 0.152608558535575867 0.0479009859263896942
0.107868880033493042 0.143410205841064453 0.0484038032591342926
-0.136744037270545959 0.150529727339744568 0.0487776696681976318
0.240653127431869507 0.14261944591999054 0.049069724977016449
-0.118558607995510101 0.142212435603141785 0.0494122765958309174
0.0142962140962481499 0.150329232215881348 0.049820873886346817
0.246810227632522583 0.141199499368667603 0.0502652525901794434
-0.0403122417628765106 0.149480313062667847 0.0505355261266231537
-0.247598960995674133 0.140869617462158203 0.050542835146188736
0.250354260206222534 0.140764474868774414 0.0506314747035503387
-0.260658115148544312 0.149142161011695862 0.0507146231830120087
0.260376513004302979 0.139536291360855103 0.0516654215753078461
-0.129784122109413147 0.139250025153160095 0.0519060604274272919
-0.113418489694595337 0.146162644028663635 0.0520201362669467926
0.0752275511622428894 0.139030322432518005 0.0520913638174533844
0.205492570996284485 0.138956055045127869 0.0521538034081459045
0.019984513521194458 0.147423461079597473 0.052267175167798996
-0.147493287920951843 0.138803422451019287 0.0522820800542831421
-0.298364251852035522 0.137833505868911743 0.0530989468097686768
0.0364325642585754395 0.146266132593154907 0.0532418824732303619
-0.114367835223674774 0.136477291584014893 0.0542412698268890381
0.0874754711985588074 0.136014372110366821 0.0546310693025588989
-0.318811595439910889 0.142943188548088074 0.05500778928399086
0.137506484985351562 0.135329470038414001 0.0552078373730182648
-0.207027137279510498 0.143107965588569641 0.0554270967841148376
-0.302821606397628784 0.134996891021728516 0.0554878115653991699
0.230071201920509338 0.142418354749679565 0.056477569043636322
0.172961011528968811 0.13366544246673584 0.0566094890236854553
0.245729699730873108 0.142192825675010681 0.0566662885248661041
-0.220099583268165588 0.133022204041481018 0.0571507439017295837
0.226771563291549683 0.132826536893844604 0.0573157407343387604
-0.102966614067554474 0.132730141282081604 0.0573964901268482208
0.173731386661529541 0.140720263123512268 0.0578985214233398438
-0.216750964522361755 0.14043782651424408 0.0580618344247341156
-0.0257816854864358902 0.131890013813972473 0.0581042617559432983
-0.185172975063323975 0.13137778639793396 0.0585355199873447418
-0.175185218453407288 0.137982085347175598 0.059599805623292923
0.0739507898688316345 0.13861382007598877 0.0596648789942264557
0.203373745083808899 0.12987026572227478 0.059805259108543396
-0.0439454242587089539 0.129382014274597168 0.0602167695760726929
-0.262069106101989746 0.137932181358337402 0.0602388456463813782
0.0133315082639455795 0.137593165040016174 0.0605246573686599731
-0.282616317272186279 0.128927797079086304 0.0605990849435329437
-0.309247583150863647 0.137105554342269897 0.0609353110194206238
-0.302985489368438721 0.137096494436264038 0.06094355508685112
0.272895306348800659 0.136959835886955261 0.0609927177429199219
0.0854163393378257751 0.127346858382225037 0.0619305968284606934
-0.113885834813117981 0.127233564853668213 0.0620253458619117737
-0.213740140199661255 0.135227471590042114 0.06250743567943573
-0.228229314088821411 0.134865626692771912 0.0628220289945602417
0.271117240190505981 0.134497582912445068 0.0631062537431716919
-0.10629243403673172 0.125250846147537231 0.0636950209736824036
-0.271734893321990967 0.125242248177528381 0.0637026205658912659
-0.0804040580987930298 0.124516941606998444 0.0643133893609046936
-0.240945622324943542 0.123379051685333252 0.0652715116739273071
-0.0573956742882728577 0.131284698843955994 0.0658387690782546997
-0.190150260925292969 0.131222963333129883 0.0658910050988197327
-0.201683089137077332 0.122076988220214844 0.0663688406348228455
-0.0296769607812166214 0.121955402195453644 0.0664714649319648743
0.072534605860710144 0.129513606429100037 0.0673397332429885864
-0.304098248481750488 0.120705373585224152 0.0675249770283699036
-0.126128599047660828 0.127725183963775635 0.0688555985689163208
0.263748258352279663 0.127721413969993591 0.0688576772809028625
-0.20838502049446106 0.127338871359825134 0.0691822990775108337
0.0227943621575832367 0.127127304673194885 0.0693606287240982056
-0.186739340424537659 0.11848856508731842 0.0693955942988395691
0.144718647003173828 0.118376374244689941 0.0694905295968055725
0.058334004133939743 0.126573354005813599 0.0698271244764328003
0.0671820864081382751 0.117671571671962738 0.0700864121317863464
-0.296278983354568481 0.12613193690776825 0.0701985731720924377
0.130492568016052246 0.116098217666149139 0.0714163407683372498
-0.0155964978039264679 0.124461859464645386 0.0716052278876304626
0.090643860399723053 0.12421155720949173 0.0718160048127174377
-0.245464980602264404 0.122763864696025848 0.0730348303914070129
0.0219587963074445724 0.122722625732421875 0.0730697512626647949
0.246035218238830566 0.113973863422870636 0.0732081308960914612
-0.198732376098632812 0.121052078902721405 0.0744762420654296875
-0.22264474630355835 0.112070649862289429 0.0748106017708778381
-0.31324470043182373 0.111970089375972748 0.0748962312936782837
-0.241665437817573547 0.120373010635375977 0.0750479027628898621
-0.28142780065536499 0.11982380598783493 0.0755103230476379395
-0.18004414439201355 0.110538758337497711 0.076100274920463562
0.13764403760433197 0.118322126567363739 0.0767754986882209778
0.122363150119781494 0.109707869589328766 0.076800227165222168
-0.240571647882461548 0.117815218865871429 0.0772023424506187439
0.107999928295612335 0.116805315017700195 0.0780533552169799805
0.195798963308334351 0.108000628650188446 0.0782376527786254883
0.23868289589881897 0.10755930095911026 0.0786091238260269165
0.209574580192565918 0.115982182323932648 0.0787468105554580688
0.176257267594337463 0.115670002996921539 0.0790097936987876892
0.252054363489151001 0.106300115585327148 0.0796661823987960815
0.265006154775619507 0.114816755056381226 0.0797268003225326538
-0.217328697443008423 0.105806194245815277 0.0800803601741790771
-0.0673961341381072998 0.112812712788581848 0.0807029306888580322
-0.0761909261345863342 0.112959273159503937 0.0807460546493530273
0.0938465297222137451 0.113308966159820557 0.0809975713491439819
-0.269492745399475098 0.113114632666110992 0.0811609849333763123
-0.0887851640582084656 0.104154795408248901 0.0814652368426322937
-0.0869619473814964294 0.103677190840244293 0.0818658173084259033
0.275959968566894531 0.110627695918083191 0.0820498019456863403
0.188095256686210632 0.111983098089694977 0.0821138322353363037
0.119870804250240326 0.111470982432365417 0.0825450718402862549
0.256524622440338135 0.111268945038318634 0.0827152281999588013
-0.0163123290985822678 0.10240115225315094 0.0829392224550247192
-0.149431362748146057 0.10163358598947525 0.0835856646299362183
-0.0452974848449230194 0.101385794579982758 0.0837944298982620239
-0.25439879298210144 0.100889824330806732 0.0842120945453643799
-0.0954253971576690674 0.100852951407432556 0.0842429623007774353
0.20997166633605957 0.109067536890506744 0.0845693573355674744
0.131203904747962952 0.100075371563434601 0.0848983079195022583
0.27073100209236145 0.108654476702213287 0.0849012508988380432
0.0707098022103309631 0.0998186841607093811 0.0851145759224891663
-0.142464533448219299 0.0998038053512573242 0.0851268991827964783
-0.125413373112678528 0.107365250587463379 0.0854223147034645081
0.247957184910774231 0.0980715081095695496 0.0865855515003204346
0.0174754578620195389 0.106149941682815552 0.0870264619588851929
-0.0585589036345481873 0.0972981974482536316 0.0872361361980438232
-0.306027442216873169 0.105537481606006622 0.0875420868396759033
-0.085544101893901825 0.104363583028316498 0.0876526013016700745
-0.327437043190002441 0.101429417729377747 0.0881399586796760559
0.0614306218922138214 0.104824244976043701 0.0881428569555282593
-0.0152230812236666679 0.103292018175125122 0.0882251858711242676
-0.24168860912322998 0.095988743007183075 0.0883385539054870605
0.245044723153114319 0.104410402476787567 0.0884913653135299683
-0.224573999643325806 0.104357793927192688 0.0885353907942771912
-0.125854119658470154 0.095750957727432251 0.0885388106107711792
0.255940467119216919 0.095317356288433075 0.0889041498303413391
0.137673944234848022 0.0944747403264045715 0.0896140560507774353
0.00799253489822149277 0.0943013951182365417 0.0897601023316383362
0.104131177067756653 0.0931917950510978699 0.0906949639320373535
-0.1415281742811203 0.092985883355140686 0.0908682942390441895
0.137213081121444702 0.101382039487361908 0.0910422056913375854
0.13354945182800293 0.092581920325756073 0.0912088081240653992
0.275882482528686523 0.0984318554401397705 0.0919265672564506531
-0.176138430833816528 0.091226041316986084 0.0923509076237678528
0.108767308294773102 0.0995668172836303711 0.0925710424780845642
-0.251662909984588623 0.0908022299408912659 0.0927078500390052795
0.159485101699829102 0.0907690972089767456 0.0927357599139213562
-0.282511025667190552 0.0905922725796699524 0.0928847715258598328
0.251687169075012207 0.0986303016543388367 0.093359529972076416
0.273428052663803101 0.0984004437923431396 0.0934182852506637573
0.0570588111877441406 0.0983176678419113159 0.093622744083404541
-0.151676595211029053 0.0979878902435302734 0.0939002931118011475
-0.071585923433303833 0.0891459137201309204 0.0941021814942359924
0.19485802948474884 0.0976538285613059998 0.094181649386882782
-0.260413318872451782 0.0887551978230476379 0.0944315344095230103
0.1716909259557724 0.088145524263381958 0.0949449092149734497
0.143755137920379639 0.096413441002368927 0.0952259674668312073
-0.127444267272949219 0.0955960005521774292 0.0957694500684738159
0.111161135137081146 0.0870576053857803345 0.0958611220121383667
-0.146874919533729553 0.0951008126139640808 0.0963313281536102295
-0.0679562464356422424 0.0864050835371017456 0.0964104458689689636
0.198780164122581482 0.0861023738980293274 0.0966657176613807678
0.189343169331550598 0.0943523123860359192 0.0969619452953338623
0.275482833385467529 0.0924464315176010132 0.0975366905331611633
0.272136300802230835 0.0850342437624931335 0.0976400747895240784
-0.187554061412811279 0.0843245983123779297 0.0981628894805908203
-0.159084990620613098 0.0925948619842529297 0.0984419584274291992
0.26858443021774292 0.0839642807841300964 0.0984668135643005371
0.187700778245925903 0.0838646665215492249 0.098550453782081604
0.167787224054336548 0.0835919678211212158 0.0987801700830459595
-0.214566588401794434 0.0831196829676628113 0.0991774052381515503
-0.0342721268534660339 0.090334475040435791 0.0991783514618873596
0.0864020362496376038 0.082303851842880249 0.0998644828796386719
0.188335105776786804 0.0908785015344619751 0.0998814553022384644
0.192295655608177185 0.0822013244032859802 0.0999509245157241821
-0.210032150149345398 0.0818497836589813232 0.100246310234069824
0.0569725595414638519 0.0814974978566169739 0.100543282926082611
-0.142855793237686157 0.0900243967771530151 0.100596830248832703
0.275788366794586182 0.0884798392653465271 0.101326748728752136
-0.224708735942840576 0.0887222364544868469 0.10168764740228653
-0.107593663036823273 0.0796657353639602661 0.102084986865520477
0.14710196852684021 0.0796596929430961609 0.102090716361999512
0.049948427826166153 0.0881289765238761902 0.10218510776758194
0.0694125443696975708 0.0879414454102516174 0.102343067526817322
0.0261983368545770645 0.0875641033053398132 0.102661184966564178
0.276028484106063843 0.0862136334180831909 0.102772064507007599
0.0494733825325965881 0.0781877487897872925 0.103331029415130615
-0.0758139863610267639 0.0851256027817726135 0.104148052632808685
0.164159610867500305 0.0772093459963798523 0.104155384004116058
0.199798420071601868 0.0854940786957740784 0.104404479265213013
-0.310688644647598267 0.0847999602556228638 0.104954466223716736
0.0398411005735397339 0.0835789144039154053 0.106017574667930603
0.142860397696495056 0.0749184861779212952 0.10608942061662674
0.083084695041179657 0.074790269136428833 0.106197923421859741
0.276182234287261963 0.0773373693227767944 0.106299035251140594
0.107088387012481689 0.0741326510906219482 0.106754936277866364
0.225903987884521484 0.0734447985887527466 0.107336938381195068
-0.248555690050125122 0.0725005939602851868 0.108135603368282318
-0.19857335090637207 0.0805162116885185242 0.108595885336399078
-0.0534785911440849304 0.0804114416241645813 0.108672074973583221
-0.0576161108911037445 0.0712946578860282898 0.109153024852275848
0.200940191745758057 0.0790500864386558533 0.10983642190694809
-0.310297012329101562 0.0704350322484970093 0.109878666698932648
-0.112005338072776794 0.0785601958632469177 0.110250450670719147
-0.00297350436449050903 0.069754965603351593 0.110449761152267456
-0.281195759773254395 0.068522915244102478 0.111487604677677155
-0.291306465864181519 0.0679184272885322571 0.111996687948703766
0.118101939558982849 0.0754473432898521423 0.112882219254970551
-0.259428083896636963 0.0752717107534408569 0.11303015798330307
0.201972439885139465 0.0745477229356765747 0.113640002906322479
-0.0949349626898765564 0.074405372142791748 0.113759979605674744
0.11022532731294632 0.0743941739201545715 0.11376933753490448
-0.315249830484390259 0.0658794716000556946 0.113786481320858002
0.062252584844827652 0.065242961049079895 0.114248745143413544
0.0222295597195625305 0.0651062652468681335 0.114363797008991241
0.184592127799987793 0.0736469924449920654 0.114398710429668427
-0.107241891324520111 0.0723768621683120728 0.115468546748161316
-0.233531370759010315 0.072293207049369812 0.115538954734802246
0.219695433974266052 0.0636154338717460632 0.115617290139198303
-0.242894932627677917 0.0635129287838935852 0.115703262388706207
-0.223559752106666565 0.0717633217573165894 0.115985088050365448
0.27533191442489624 0.0631431490182876587 0.116618789732456207
-0.263487011194229126 0.0707001984119415283 0.116880305111408234
0.0957851335406303406 0.0696984678506851196 0.117723755538463593
0.124077185988426208 0.0610910132527351379 0.11773265153169632
0.135316222906112671 0.0695223286747932434 0.117872066795825958
0.0132940113544464111 0.0691676214337348938 0.117952138185501099
-0.198862403631210327 0.0693463757634162903 0.118020139634609222
-0.217180594801902771 0.0692491009831428528 0.118102096021175385
0.0217774640768766403 0.0603754147887229919 0.118332311511039734
-0.0365099310874938965 0.0669313222169876099 0.119089201092720032
0.0371972173452377319 0.0594463907182216644 0.119112968444824219
-0.0308326780796051025 0.0664562657475471497 0.119624786078929901
0.222370967268943787 0.0586253665387630463 0.119804523885250092
-0.223538041114807129 0.0671184584498405457 0.11989661306142807
-0.00861258432269096375 0.0658669620752334595 0.120221860706806183
-0.0891337990760803223 0.0579161606729030609 0.120401814579963684
0.103779196739196777 0.0573849231004714966 0.120849363505840302
-0.11849445104598999 0.0566533319652080536 0.121465437114238739
0.261820137500762939 0.0647510215640068054 0.121889270842075348
-0.268106609582901001 0.0644236579537391663 0.122166663408279419
0.276383966207504272 0.05955524742603302 0.122471742331981659
0.116696737706661224 0.0639127343893051147 0.122523017227649689
-0.204252660274505615 0.054724179208278656 0.123090408742427826
0.0332371853291988373 0.0624185800552368164 0.123099885880947113
0.103581346571445465 0.0541740469634532928 0.123553700745105743
0.119667977094650269 0.0620933249592781067 0.123867176473140717
0.186234578490257263 0.061865977942943573 0.124035142362117767
-0.0202271547168493271 0.0535731539130210876 0.124058984220027924
0.179306685924530029 0.0535713881254196167 0.124061256647109985
0.059186592698097229 0.0600076094269752502 0.125734061002731323
0.239967420697212219 0.0592870526015758514 0.125935330986976624
-0.277397274971008301 0.0507110022008419037 0.126470431685447693
0.087087288498878479 0.0502731688320636749 0.126839011907577515
0.0561825595796108246 0.057801421731710434 0.127437412738800049
-0.260382711887359619 0.0579317547380924225 0.127634391188621521
-0.097681000828742981 0.0575436316430568695 0.127961307764053345
0.010729755274951458 0.0488204993307590485 0.128062143921852112
0.101458616554737091 0.055812150239944458 0.128488779067993164
0.140484541654586792 0.0477858744561672211 0.128933727741241455
0.184273228049278259 0.0477142930030822754 0.128994002938270569
-0.00589756155386567116 0.0548492856323719025 0.129699140787124634
0.241417780518531799 0.0540158636868000031 0.129814863204956055
0.0845551267266273499 0.0538548342883586884 0.129933744668960571
-0.223198354244232178 0.055116213858127594 0.130005389451980591
0.239688500761985779 0.0460549443960189819 0.130390986800193787
-0.201963901519775391 0.0459745265543460846 0.130458936095237732
-0.283143669366836548 0.0543241463601589203 0.13067232072353363
-0.11262279748916626 0.0454313568770885468 0.130915939807891846
-0.0655005723237991333 0.0453302673995494843 0.131001055240631104
0.233730047941207886 0.0517988391220569611 0.131490632891654968
0.0822252333164215088 0.0516129434108734131 0.131647124886512756
-0.214632764458656311 0.0531294234097003937 0.131678074598312378
-0.0817118734121322632 0.0444660894572734833 0.131728559732437134
0.0395608395338058472 0.0441462323069572449 0.131998360157012939
-0.230364575982093811 0.0437196195125579834 0.13235771656036377
-0.135446920990943909 0.0515818595886230469 0.132981285452842712
0.16305108368396759 0.0497079715132713318 0.133251547813415527
0.137459948658943176 0.0490629822015762329 0.13379475474357605
-0.288017064332962036 0.0407657288014888763 0.134846135973930359
-0.00740875396877527237 0.0407596565783023834 0.134850874543190002
-0.0675359740853309631 0.0490778461098670959 0.13509039580821991
0.167538106441497803 0.0403923168778419495 0.135160326957702637
-0.0402744114398956299 0.0483466312289237976 0.135692164301872253
0.109318584203720093 0.046789705753326416 0.135883182287216187
-0.308941036462783813 0.0440861620008945465 0.135946765542030334
0.00364220608025789261 0.0472449101507663727 0.135990425944328308
0.227656930685043335 0.0391763225197792053 0.13618411123752594
0.22448335587978363 0.0391714386641979218 0.136188223958015442
0.255003958940505981 0.0458396561443805695 0.136786878108978271
0.193703442811965942 0.0456091053783893585 0.137006178498268127
0.0664389356970787048 0.0458241291344165802 0.137279942631721497
-0.158464729785919189 0.0462834499776363373 0.137433543801307678
0.0699243694543838501 0.0453111268579959869 0.137557327747344971
-0.071280553936958313 0.0371871292591094971 0.137858808040618896
0.149596482515335083 0.0441449955105781555 0.138402223587036133
-0.129480257630348206 0.0439128018915653229 0.139425128698348999
-0.147669404745101929 0.0350930802524089813 0.139622524380683899
-0.1001620814204216 0.0342911891639232635 0.140297740697860718
-0.301999747753143311 0.0415046103298664093 0.141224384307861328
0.133400887250900269 0.0409519560635089874 0.141468018293380737
-0.162327244877815247 0.0321121476590633392 0.142133608460426331
-0.226361706852912903 0.0405880510807037354 0.142225563526153564
-0.0308892875909805298 0.0400809384882450104 0.142652347683906555
-0.257196754217147827 0.0312038790434598923 0.142898529767990112
-0.287135899066925049 0.0310119353234767914 0.143060371279716492
0.142058670520782471 0.0304348412901163101 0.143545240163803101
-0.0425218716263771057 0.0381627865135669708 0.14426790177822113
-0.253575533628463745 0.0287889000028371811 0.144931718707084656
-0.27399018406867981 0.02791554294526577 0.145667508244514465
-0.15632118284702301 0.0359248444437980652 0.146156415343284607
0.149141103029251099 0.0272295922040939331 0.146244674921035767
0.0984114333987236023 0.0269802063703536987 0.146454721689224243
-0.206966623663902283 0.0349169448018074036 0.147008851170539856
0.0215974953025579453 0.0263068433851003647 0.147021293640136719
-0.24060368537902832 0.0257655009627342224 0.147478193044662476
-0.210796669125556946 0.0342941246926784515 0.147535577416419983
0.210593178868293762 0.0253547336906194687 0.147823929786682129
-0.0671100392937660217 0.0337500050663948059 0.147995650768280029
0.0876427441835403442 0.0250129923224449158 0.148111790418624878
0.271598756313323975 0.0250435303896665573 0.14815385639667511
0.00621248548850417137 0.0335392467677593231 0.148174047470092773
-0.173867732286453247 0.0229540839791297913 0.149851351976394653
0.221616208553314209 0.0218659918755292892 0.150770768523216248
0.204380512237548828 0.0302729252725839615 0.150927335023880005
0.0630668699741363525 0.0216469578444957733 0.150955796241760254
-0.27900618314743042 0.0295003112405538559 0.151578277349472046
-0.204743236303329468 0.0204689595848321915 0.151950448751449585
0.131572902202606201 0.020374782383441925 0.15202958881855011
0.112211517989635468 0.0280370786786079407 0.152810290455818176
-0.236866146326065063 0.0280193518847227097 0.152825295925140381
-0.292324364185333252 0.0263255834579467773 0.153040692210197449
-0.235457763075828552 0.0275186300277709961 0.153246819972991943
-0.285402446985244751 0.0273572690784931183 0.153373748064041138
0.243518173694610596 0.017023865133523941 0.15485168993473053
0.118259385228157043 0.0169625207781791687 0.154903173446655273
0.157931014895439148 0.0255354754626750946 0.154916226863861084
-0.132999062538146973 0.0252084210515022278 0.155191540718078613
0.135771214962005615 0.0248290728777647018 0.155475407838821411
0.0753324106335639954 0.0246118344366550446 0.155663579702377319
0.0183302629739046097 0.0159025415778160095 0.155795946717262268
-0.041763603687286377 0.015543879009783268 0.156098023056983948
-0.280762910842895508 0.0140287196263670921 0.15754389762878418
-0.0536574274301528931 0.0223946142941713333 0.15756186842918396
0.193538755178451538 0.0216718856245279312 0.157792583107948303
-0.15684334933757782 0.0129587510600686073 0.158275783061981201
0.166623413562774658 0.0209716949611902237 0.158307179808616638
0.270167440176010132 0.0126377111300826073 0.158551350235939026
0.210316777229309082 0.0206225849688053131 0.158565044403076172
-0.00869795028120279312 0.0121387830004096031 0.158963680267333984
0.182207092642784119 0.019133053719997406 0.159665286540985107
-0.118681609630584717 0.0192628726363182068 0.160199210047721863
-0.0429830849170684814 0.0100059323012828827 0.160753056406974792
0.153345599770545959 0.0171425472944974899 0.161135569214820862
-0.260385513305664062 0.0179657675325870514 0.161291316151618958
-0.0740986019372940063 0.0179128311574459076 0.161335796117782593
0.0583930611610412598 0.0167815033346414566 0.161953642964363098
-0.154302164912223816 0.016837751492857933 0.162241369485855103
0.0447841249406337738 0.0157217197120189667 0.162515044212341309
0.270113646984100342 0.0156676750630140305 0.162572205066680908
0.161602437496185303 0.00770189054310321808 0.162690445780754089
-0.0163466297090053558 0.00697244564071297646 0.163304612040519714
0.0156069658696651459 0.00632266514003276825 0.163852110505104065
0.148062631487846375 0.0133857391774654388 0.163895368576049805
-0.28059116005897522 0.0100736841559410095 0.164110884070396423
0.222663700580596924 0.00572009524330496788 0.164359837770462036
0.174608528614044189 0.00541280023753643036 0.164618805050849915
-0.0215901024639606476 0.00486640073359012604 0.16507895290851593
-0.272653937339782715 0.0117957396432757378 0.166390895843505859
-0.202128812670707703 0.00291524012573063374 0.166723296046257019
0.0993204042315483093 0.00996003486216068268 0.167378097772598267
0.0934314429759979248 0.000841836619656533003 0.168467923998832703
-0.0941049233078956604 0.00938073359429836273 0.168521076440811157
0.136864647269248962 0.000743711949326097965 0.168550640344619751
-0.10695725679397583 0.000563391135074198246 0.168703511357307434
-0.00616129999980330467 0.000461435993202030659 0.168788358569145203
-0.263764947652816772 0.00103962398134171963 0.168821766972541809
-0.0764404386281967163 0.00892218109220266342 0.168907284736633301
-0.0849867984652519226 0.00811773631721735001 0.169584855437278748
0.150127455592155457 0.0065641012042760849 0.169585928320884705
0.0724576264619827271 0.0063944011926651001 0.170224055647850037
0.276285022497177124 0.00355738261714577675 0.170574590563774109
0.228571459650993347 -0.00215708487667143345 0.17099413275718689
-0.053696606308221817 0.00638602906838059425 0.171043381094932556
0.275822669267654419 -0.00152968731708824635 0.171579167246818542
-0.0702331215143203735 0.00565567845478653908 0.171658113598823547
0.210635825991630554 0.00399329699575901031 0.171869754791259766
0.0291024502366781235 0.00478207273408770561 0.172388702630996704
-0.236573711037635803 0.00459791999310255051 0.17254360020160675
0.0933806523680686951 -0.00453514000400900841 0.172996178269386292
0.0170071162283420563 -0.00500568700954318047 0.173392266035079956
-0.0642366409301757812 0.00353647349402308464 0.173431351780891418
-0.153783783316612244 -0.00574172521010041237 0.174012109637260437
-0.0979489386081695557 -0.00702574476599693298 0.175093188881874084
-0.152931839227676392 0.00117043196223676205 0.17541387677192688
-0.0278262756764888763 0.000878423743415623903 0.175659716129302979
-0.100922234356403351 0.000642680737655609846 0.175858393311500549
0.0444197617471218109 0.000486089527839794755 0.175859317183494568
0.112310297787189484 -0.000344001164194196463 0.176355138421058655
0.134896934032440186 -0.000967726402450352907 0.176601409912109375
-0.155385330319404602 -0.00905631575733423233 0.176804199814796448
-0.114117361605167389 -0.00913071632385253906 0.176866874098777771
0.0127944145351648331 -0.00940509233623743057 0.1770973801612854
-0.0354371517896652222 -0.00953394640237092972 0.177206441760063171
0.0556289553642272949 -0.00157254270743578672 0.177335083484649658
-0.252392441034317017 -0.00190493639092892408 0.177828088402748108
-0.0646993964910507202 -0.00317953154444694519 0.179077968001365662
0.252804547548294067 -0.00382511387579143047 0.179339826107025146
-0.0411029048264026642 -0.012251364067196846 0.179495140910148621
-0.0293309837579727173 -0.00412092637270689011 0.17987079918384552
0.0246711764484643936 -0.0133749525994062424 0.180440723896026611
0.208848387002944946 -0.00535622471943497658 0.180804610252380371
-0.116346456110477448 -0.0151523388922214508 0.181938409805297852
-0.0173077266663312912 -0.0152936810627579689 0.182056427001953125
-0.196836069226264954 -0.0169648025184869766 0.183465629816055298
0.0844667926430702209 -0.0175302065908908844 0.183940842747688293
0.25277411937713623 -0.0184549782425165176 0.184720218181610107
0.219116002321243286 -0.0187605768442153931 0.18497854471206665
0.0307053122669458389 -0.0102507239207625389 0.185054212808609009
-0.172420904040336609 -0.0196321718394756317 0.185716629028320312
0.0988346412777900696 -0.0205939114093780518 0.186528295278549194
-0.196871697902679443 -0.0129556534811854362 0.187331795692443848
0.126040473580360413 -0.0134559925645589828 0.187754064798355103
-0.225745007395744324 -0.0214871764183044434 0.188293114304542542
-0.0425428450107574463 -0.0228451676666736603 0.188429951667785645
0.250935584306716919 -0.0143878888338804245 0.188538834452629089
0.183858484029769897 -0.0229782816022634506 0.188541978597640991
0.0947633162140846252 -0.0231867562979459763 0.188717365264892578
0.155667558312416077 -0.0156162064522504807 0.189572706818580627
-0.0956139788031578064 -0.0243996083736419678 0.18973936140537262
-0.17531178891658783 -0.0244047380983829498 0.189744055271148682
0.0148279983550310135 -0.0159062743186950684 0.189816772937774658
0.0600146912038326263 -0.0249425992369651794 0.190195918083190918
-0.0682781785726547241 -0.017000250518321991 0.190738365054130554
0.0676631703972816467 -0.0170873813331127167 0.190810993313789368
-0.123535022139549255 -0.0259029809385538101 0.191005691885948181
0.19388069212436676 -0.0173496399074792862 0.191031724214553833
-0.0287497248500585556 -0.0178978852927684784 0.191493183374404907
0.129394963383674622 -0.018481522798538208 0.19196435809135437
0.106657020747661591 -0.0280562266707420349 0.192817538976669312
0.14943830668926239 -0.0200480744242668152 0.193197086453437805
-0.0514685139060020447 -0.0285607874393463135 0.193243533372879028
0.0461329109966754913 -0.0286965556442737579 0.19335666298866272
0.241707056760787964 -0.02046222984790802 0.193399325013160706
0.177479773759841919 -0.0292219948023557663 0.193800061941146851
0.125137969851493835 -0.0293419528752565384 0.193900078535079956
0.275679141283035278 -0.0245965104550123215 0.195683076977729797
0.118722639977931976 -0.0234043020755052567 0.195888057351112366
0.16938626766204834 -0.0320966579020023346 0.196214824914932251
-0.157893553376197815 -0.0321232080459594727 0.196237921714782715
0.223308563232421875 -0.0321950651705265045 0.196297362446784973
-0.00788179412484169006 -0.0322641246020793915 0.196355372667312622
-0.100292123854160309 -0.02387247234582901 0.196525782346725464
-0.0216149315237998962 -0.0325160138309001923 0.196566715836524963
0.193758249282836914 -0.0325919128954410553 0.196630209684371948
-0.192755535244941711 -0.0318085476756095886 0.196928679943084717
0.236542180180549622 -0.0333399027585983276 0.197257563471794128
0.0319068953394889832 -0.0249291490763425827 0.197414770722389221
0.018490273505449295 -0.0356285497546195984 0.199181422591209412
0.234816461801528931 -0.0359135940670967102 0.199421286582946777
0.0922395884990692139 -0.0274921674281358719 0.199573636054992676
0.0368913076817989349 -0.0278988275676965714 0.199916154146194458
0.248084545135498047 -0.036731228232383728 0.200110092759132385
0.143275082111358643 -0.0296470001339912415 0.200883090496063232
0.0682380571961402893 -0.0381471849977970123 0.201302483677864075
0.24509294331073761 -0.0339120551943778992 0.203672543168067932
-0.0178332235664129257 -0.0326421111822128296 0.203910514712333679
0.237687289714813232 -0.0415404066443443298 0.204159662127494812
-0.00977112725377082825 -0.0417100563645362854 0.204302608966827393
-0.134966164827346802 -0.0342921912670135498 0.205089464783668518
0.0952961072325706482 -0.0350557342171669006 0.20594322681427002
0.276261180639266968 -0.0410603992640972137 0.206878051161766052
0.0390238761901855469 -0.0371631868183612823 0.207719042897224426
-0.0662693902850151062 -0.045851588249206543 0.207804068922996521
0.251257479190826416 -0.0394052118062973022 0.208299338817596436
0.209581643342971802 -0.0465536303818225861 0.208382382988929749
-0.0181080121546983719 -0.0390743687748908997 0.209328234195709229
0.0807343199849128723 -0.0402923636138439178 0.210353448987007141
0.227139517664909363 -0.0421173684298992157 0.210582926869392395
-0.0976532697677612305 -0.0457135029137134552 0.21125967800617218
-0.0953577160835266113 -0.0417825281620025635 0.211402535438537598
0.00126702245324850082 -0.0416837148368358612 0.211524859070777893
-0.0556834302842617035 -0.050668615847826004 0.21187940239906311
0.150356322526931763 -0.0508965812623500824 0.212039589881896973
0.181371718645095825 -0.0513255856931209564 0.212401121854782104
0.131876125931739807 -0.0517479442059993744 0.212757021188735962
0.237027958035469055 -0.0519623681902885437 0.212937712669372559
0.229820013046264648 -0.0520523078739643097 0.213013499975204468
0.123919598758220673 -0.0532560907304286957 0.214027777314186096
0.161016061902046204 -0.0533629283308982849 0.214117854833602905
0.252040594816207886 -0.0473180897533893585 0.215108186006546021
0.226602792739868164 -0.0481072813272476196 0.215858101844787598
-0.0647538229823112488 -0.0516701154410839081 0.216349869966506958
0.222851306200027466 -0.0575944557785987854 0.21768130362033844
0.0790351629257202148 -0.0578922592103481293 0.217932209372520447
0.0180391985923051834 -0.0583756826817989349 0.218339502811431885
0.234098076820373535 -0.0509001463651657104 0.218518838286399841
0.0468302182853221893 -0.0591587051749229431 0.218999028205871582
0.260864883661270142 -0.0593300536274909973 0.219143286347389221
0.0758229494094848633 -0.0508830100297927856 0.219255626201629639
0.19592893123626709 -0.0600562281906604767 0.219754979014396667
0.0452255792915821075 -0.0515639670193195343 0.21982911229133606
0.0409348234534263611 -0.0518328472971916199 0.220055565237998962
-0.0421481579542160034 -0.0525744296610355377 0.220238283276557922
0.114149004220962524 -0.0521786697208881378 0.220346808433532715
0.138108253479003906 -0.0613342784345149994 0.220831573009490967
0.276206761598587036 -0.058279622346162796 0.221950292587280273
0.0259245801717042923 -0.055844329297542572 0.22343406081199646
-0.0239423774182796478 -0.0576000586152076721 0.223977044224739075
0.0983999297022819519 -0.0567907392978668213 0.224231064319610596
0.123931996524333954 -0.0656475946307182312 0.224479526281356812
0.0139605319127440453 -0.065936550498008728 0.224735066294670105
0.0886766836047172546 -0.0667389407753944397 0.225398704409599304
0.164769217371940613 -0.0673401057720184326 0.225904896855354309
0.206985592842102051 -0.0599024631083011627 0.226862356066703796
0.241552546620368958 -0.0608509816229343414 0.227665320038795471
-0.00804358348250389099 -0.0618833079934120178 0.227815762162208557
0.0544621460139751434 -0.0614912509918212891 0.228206902742385864
0.0879411026835441589 -0.0618879944086074829 0.22854103147983551
0.127522468566894531 -0.0705473199486732483 0.228605598211288452
0.273467898368835449 -0.0704073458909988403 0.228606134653091431
0.259797036647796631 -0.0707005709409713745 0.228734597563743591
0.0681847333908081055 -0.0624836906790733337 0.229042723774909973
0.136009141802787781 -0.0719353407621383667 0.229773998260498047
0.00584664195775985718 -0.064641416072845459 0.230149701237678528
0.187718242406845093 -0.0736185610294342041 0.23119083046913147
0.212254434823989868 -0.0655979663133621216 0.231240361928939819
0.275950193405151367 -0.0733298882842063904 0.231447681784629822
0.157478690147399902 -0.0744618624448776245 0.23189777135848999
0.204437196254730225 -0.07507314532995224 0.232410117983818054
0.16510358452796936 -0.075565926730632782 0.232823148369789124
0.0470661334693431854 -0.0672018975019454956 0.233016222715377808
0.0504047200083732605 -0.0785801708698272705 0.235371515154838562
0.238719210028648376 -0.0716495290398597717 0.235671937465667725
