ply
format ascii 1.0
element vertex 733
property float x
property float y
property float z
end_header
-0.0377980247139930725 0.191519379615783691 0.156234994530677795
0.118310637772083282 0.192191213369369507 0.156234994530677795
0.0992657244205474854 0.192532435059547424 0.156234994530677795
-0.0532711297273635864 0.195192381739616394 0.156234994530677795
0.107035957276821136 0.197291433811187744 0.156234994530677795
0.0712130814790725708 0.198777481913566589 0.156234994530677795
-0.058543521910905838 0.199070051312446594 0.156234994530677795
0.0666340067982673645 0.199428930878639221 0.156234994530677795
-0.0703178420662879944 0.202488943934440613 0.156234994530677795
-0.117955669760704041 0.204146906733512878 0.156234994530677795
-0.135532841086387634 0.208450406789779663 0.156234994530677795
0.0497199743986129761 0.20850825309753418 0.156234994530677795
-0.124064810574054718 0.209306895732879639 0.156234994530677795
-0.0260772258043289185 0.215264156460762024 0.156234994530677795
0.103881947696208954 0.215419158339500427 0.156234994530677795
0.0936427339911460876 0.215993151068687439 0.156234994530677795
-0.0824072510004043579 0.218951702117919922 0.156234994530677795
0.133974596858024597 0.222530379891395569 0.156234994530677795
0.115778625011444092 0.224119320511817932 0.156234994530677795
0.0817402899265289307 0.226124823093414307 0.156234994530677795
-0.136386245489120483 0.226525336503982544 0.156234994530677795
-0.10481734573841095 0.226685658097267151 0.156234994530677795
-0.0777479708194732666 0.227902337908744812 0.156234994530677795
0.0332056581974029541 0.230247944593429565 0.156234994530677795
0.120305426418781281 0.230390354990959167 0.156234994530677795
0.107892945408821106 0.230417847633361816 0.156234994530677795
-0.063890703022480011 0.231952667236328125 0.156234994530677795
0.0785877257585525513 0.232466727495193481 0.156234994530677795
0.0635161548852920532 0.236090987920761108 0.156234994530677795
0.124699041247367859 0.236555501818656921 0.156234994530677795
-0.118995711207389832 0.239174872636795044 0.156234994530677795
0.00589842954650521278 0.239197447896003723 0.156234994530677795
0.0647291317582130432 0.247442826628684998 0.156234994530677795
0.0417203083634376526 0.248760998249053955 0.156234994530677795
0.0264293309301137924 0.250054150819778442 0.156234994530677795
-0.0638338923454284668 0.252903640270233154 0.156234994530677795
-0.0922171995043754578 0.259039223194122314 0.156234994530677795
0.0336248539388179779 0.25961005687713623 0.156234994530677795
-0.126860558986663818 0.262825340032577515 0.156234994530677795
0.106022894382476807 0.26454770565032959 0.156234994530677795
-0.0555162020027637482 0.26550602912902832 0.156234994530677795
-0.10984252393245697 0.267701238393783569 0.156234994530677795
0.0945915356278419495 0.268994033336639404 0.156234994530677795
0.113388538360595703 0.269248306751251221 0.156234994530677795
-0.0593371912837028503 0.269363939762115479 0.156234994530677795
-0.0658128485083580017 0.273003250360488892 0.156234994530677795
-0.00149824796244502068 0.274087637662887573 0.156234994530677795
0.0680462941527366638 0.274963259696960449 0.156234994530677795
0.0156532842665910721 0.279319733381271362 0.156234994530677795
-0.0773376524448394775 0.279520869255065918 0.156234994530677795
0.136338591575622559 0.281015485525131226 0.156234994530677795
0.0359047092497348785 0.282848328351974487 0.156234994530677795
0.0614304617047309875 0.283960521221160889 0.156234994530677795
0.117437273263931274 0.286759346723556519 0.156234994530677795
-0.0492172352969646454 0.287191569805145264 0.156234994530677795
0.0124470433220267296 0.287611722946166992 0.156234994530677795
0.105064429342746735 0.292382001876831055 0.156234994530677795
0.0641469061374664307 0.293660581111907959 0.156234994530677795
0.104084424674510956 0.300375819206237793 0.156234994530677795
-0.0608810782432556152 0.303507059812545776 0.156234994530677795
-0.0804715454578399658 0.304227322340011597 0.156234994530677795
-0.110545992851257324 0.307221829891204834 0.156234994530677795
-0.0668033808469772339 0.309802770614624023 0.156234994530677795
0.103639543056488037 0.314985573291778564 0.156234994530677795
0.0756801143288612366 0.318542182445526123 0.156234994530677795
-0.0947399213910102844 0.318645834922790527 0.156234994530677795
-0.094357416033744812 0.328097313642501831 0.156234994530677795
-0.0215676221996545792 0.330732017755508423 0.156234994530677795
0.0963187441229820251 0.33249133825302124 0.156234994530677795
-0.0165316928178071976 0.333941221237182617 0.156234994530677795
-0.0876228362321853638 0.334050863981246948 0.156234994530677795
-0.0927260592579841614 0.334688961505889893 0.156234994530677795
0.000957668991759419441 0.335422873497009277 0.156234994530677795
-0.0236717015504837036 0.339439511299133301 0.156234994530677795
-0.10071910172700882 0.339983880519866943 0.156234994530677795
0.0437487028539180756 0.340353101491928101 0.156234994530677795
0.019936760887503624 0.341340959072113037 0.156234994530677795
-0.0876797512173652649 0.345029592514038086 0.156234994530677795
0.132471144199371338 0.345736056566238403 0.156234994530677795
-0.0720985233783721924 0.348210066556930542 0.156234994530677795
0.12949487566947937 0.348481893539428711 0.156234994530677795
0.0253991484642028809 0.348715454339981079 0.156234994530677795
-0.0368779115378856659 0.352805912494659424 0.156234994530677795
-0.117530800402164459 0.353515684604644775 0.156234994530677795
0.0838519632816314697 0.35527309775352478 0.156234994530677795
-0.0512193404138088226 0.357507437467575073 0.156234994530677795
-0.0227538682520389557 0.357607066631317139 0.156234994530677795
0.0265368595719337463 0.362448424100875854 0.156234994530677795
0.103080257773399353 0.364531159400939941 0.156234994530677795
0.0905686840415000916 0.370877534151077271 0.156234994530677795
0.101445518434047699 0.373403191566467285 0.156234994530677795
0.096989750862121582 0.374535173177719116 0.156234994530677795
-0.129315197467803955 0.374619036912918091 0.156234994530677795
-0.103019632399082184 0.383703917264938354 0.156234994530677795
-0.11671321839094162 0.384266883134841919 0.156234994530677795
0.115975968539714813 0.38508141040802002 0.156234994530677795
0.0819412171840667725 0.387214064598083496 0.156234994530677795
-0.135262519121170044 0.392061978578567505 0.156234994530677795
-0.086465105414390564 0.394091099500656128 0.156234994530677795
0.0817728564143180847 0.396261125802993774 0.156234994530677795
-0.00761867081746459007 0.402708262205123901 0.156236141920089722
0.0633390843868255615 0.403724521398544312 0.156236365437507629
0.0349971912801265717 -0.401889920234680176 0.15623648464679718
-0.138417035341262817 -0.224123284220695496 0.156248480081558228
-0.00563802104443311691 -0.40695798397064209 0.156249463558197021
-0.0796543806791305542 -0.407343268394470215 0.156252741813659668
-0.139056190848350525 0.0413360930979251862 0.156253218650817871
-0.105061046779155731 0.407551705837249756 0.156253859400749207
-0.139191269874572754 -0.0334052443504333496 0.156254217028617859
-0.139220103621482849 0.327505022287368774 0.156254425644874573
0.138499036431312561 -0.18868236243724823 0.156254604458808899
0.139027327299118042 -0.0354531854391098022 0.156259596347808838
0.139261752367019653 -0.238206461071968079 0.156262576580047607
-0.14061582088470459 -0.0790455639362335205 0.156264767050743103
0.129668667912483215 -0.408834993839263916 0.156265422701835632
0.140212461352348328 0.405937910079956055 0.156270325183868408
0.140007913112640381 0.0625025555491447449 0.156271100044250488
0.140582695603370667 -0.250589758157730103 0.15627637505531311
0.140923231840133667 -0.0422604940831661224 0.156279921531677246
0.141141697764396667 -0.216860249638557434 0.156282216310501099
-0.141440361738204956 -0.380411326885223389 0.156352028250694275
-0.141693785786628723 -0.207891732454299927 0.156435400247573853
-0.141779571771621704 0.101254388689994812 0.156463623046875
-0.142055273056030273 -0.210213199257850647 0.156554326415061951
-0.142233893275260925 -0.384373337030410767 0.156613096594810486
0.128861472010612488 0.410421580076217651 0.156658202409744263
0.142377793788909912 0.084796413779258728 0.1567268967628479
-0.142710089683532715 0.303205579519271851 0.1567697674036026
0.142515614628791809 0.258025467395782471 0.156779557466506958
0.143015161156654358 0.0166325066238641739 0.156970486044883728
-0.0743964314460754395 -0.411279827356338501 0.15697711706161499
-0.143512025475502014 0.370666921138763428 0.157033607363700867
0.131458833813667297 -0.411452233791351318 0.157041043043136597
0.0621317662298679352 -0.411640524864196777 0.157110869884490967
-0.143813341856002808 0.0934391319751739502 0.157132744789123535
-0.0790201127529144287 0.411746501922607422 0.157152801752090454
-0.143943116068840027 -0.303438812494277954 0.157175436615943909
0.0578790083527565002 0.412027329206466675 0.157257646322250366
-0.144517391920089722 0.228923335671424866 0.15763421356678009
-0.062022041529417038 -0.412362068891525269 0.15765264630317688
0.143088206648826599 -0.19138723611831665 0.157999366521835327
0.144149377942085266 -0.344158798456192017 0.158155545592308044
-0.100018270313739777 -0.412650257349014282 0.158221498131752014
0.143343120813369751 -0.279936820268630981 0.15829041600227356
-0.0316280163824558258 -0.412800431251525879 0.158517912030220032
-0.145089149475097656 0.330860942602157593 0.158707007765769958
-0.145120799541473389 -0.0938539505004882812 0.158766373991966248
-0.145169064402580261 0.181585639715194702 0.158856943249702454
-0.145185738801956177 0.286657184362411499 0.15888822078704834
-0.145226180553436279 0.140689611434936523 0.158964112401008606
-0.145241618156433105 0.312990576028823853 0.158993065357208252
-0.145245596766471863 0.0699767842888832092 0.159000545740127563
0.145178660750389099 -0.389658719301223755 0.159227862954139709
-0.145426630973815918 -0.0616277605295181274 0.159340232610702515
-0.11256815493106842 0.413048297166824341 0.159613266587257385
-0.145609244704246521 -0.00125115853734314442 0.160357058048248291
-0.145506799221038818 -0.199356347322463989 0.161219164729118347
-0.145493805408477783 0.191171750426292419 0.161320775747299194
-0.145430594682693481 0.406944960355758667 0.161425337195396423
-0.0782553181052207947 0.413113385438919067 0.161470949649810791
0.14555792510509491 0.316133648157119751 0.161584898829460144
0.0137757053598761559 -0.413610726594924927 0.162059426307678223
0.14554007351398468 0.297215133905410767 0.162156760692596436
0.139243632555007935 -0.413593530654907227 0.162185654044151306
-0.145357176661491394 0.365600615739822388 0.162389680743217468
0.144998520612716675 -0.110107019543647766 0.162593930959701538
0.145571514964103699 -0.317438572645187378 0.162955626845359802
0.145512327551841736 0.101779848337173462 0.163045763969421387
0.145507335662841797 0.17343081533908844 0.163205519318580627
0.00737601611763238907 -0.413674294948577881 0.1632242351770401
0.14550366997718811 0.38489261269569397 0.163322746753692627
-0.122433513402938843 -0.413712233304977417 0.163919806480407715
-0.145132869482040405 -0.246774017810821533 0.164009764790534973
0.145482003688812256 0.215627238154411316 0.164577826857566833
0.145482003688812256 0.31685212254524231 0.164851084351539612
-0.144751459360122681 0.286462396383285522 0.165925517678260803
-0.144744053483009338 0.228074252605438232 0.165962696075439453
-0.144579589366912842 0.147384390234947205 0.166788816452026367
-0.144554391503334045 -0.297019362449645996 0.166915372014045715
-0.144514143466949463 -0.12310057133436203 0.167117506265640259
0.0553294308483600616 -0.413713008165359497 0.167255714535713196
0.145482003688812256 0.207283779978752136 0.167521566152572632
0.145482003688812256 0.0922343060374259949 0.167682766914367676
-0.144401192665100098 -0.0487535633146762848 0.167684853076934814
0.145482003688812256 0.104974187910556793 0.168676331639289856
-0.0878732725977897644 0.412712067365646362 0.168813511729240417
-0.143370151519775391 -0.411713123321533203 0.168824538588523865
-0.144136950373649597 0.234562844038009644 0.169008046388626099
0.145482003688812256 0.344401150941848755 0.169325217604637146
0.145523712038993835 -0.0654354915022850037 0.169464632868766785
0.145481005311012268 -0.286551237106323242 0.169499114155769348
0.145482003688812256 -0.384800046682357788 0.169739231467247009
0.145482003688812256 0.162982359528541565 0.169858112931251526
0.145482003688812256 -0.316876381635665894 0.170102089643478394
-0.143830418586730957 0.387159138917922974 0.170540362596511841
0.145526587963104248 -0.0300456937402486801 0.170583561062812805
0.145482003688812256 0.14021793007850647 0.170790255069732666
0.145482003688812256 0.200805231928825378 0.17104417085647583
0.145482003688812256 0.208980008959770203 0.171455115079879761
0.145482003688812256 0.215395897626876831 0.171493932604789734
-0.143593117594718933 0.367914319038391113 0.171726599335670471
0.145467713475227356 -0.0672964230179786682 0.171817123889923096
-0.142823413014411926 0.41221049427986145 0.172077029943466187
0.145482003688812256 0.0159542672336101532 0.1725759357213974
-0.143333271145820618 -0.00351696298457682133 0.173024639487266541
-0.143242105841636658 -0.271774590015411377 0.173480615019798279
-0.143172174692153931 -0.100920625030994415 0.173829898238182068
-0.143164217472076416 -0.173621296882629395 0.173869714140892029
-0.143121525645256042 -0.112244583666324615 0.174082979559898376
-0.143086180090904236 -0.341128259897232056 0.174259558320045471
-0.142966344952583313 0.354819446802139282 0.174858167767524719
-0.142953187227249146 0.142291679978370667 0.174923866987228394
-0.142909139394760132 -0.134694710373878479 0.17514394223690033
-0.0221452992409467697 -0.413713008165359497 0.175174295902252197
-0.142902582883834839 0.124132364988327026 0.175176665186882019
-0.14289623498916626 -0.262495517730712891 0.175208389759063721
-0.142832860350608826 -0.172999918460845947 0.175524935126304626
-0.142823055386543274 -0.311574369668960571 0.175573974847793579
-0.142765790224075317 0.288894385099411011 0.175859987735748291
-0.14274170994758606 -0.182131543755531311 0.175980284810066223
-0.142737433314323425 -0.0169716626405715942 0.176002576947212219
0.145482003688812256 0.166669532656669617 0.176012277603149414
-0.0580523647367954254 0.412712991237640381 0.176236823201179504
-0.142669796943664551 -0.0062547856941819191 0.17634214460849762
0.0984600856900215149 0.41346210241317749 0.176476836204528809
-0.0310098100453615189 -0.413713008165359497 0.176619678735733032
-0.0753758922219276428 -0.413713008165359497 0.176631957292556763
0.145482003688812256 -0.359738439321517944 0.177041530609130859
0.145481839776039124 0.00156664673704653978 0.177166998386383057
-0.142479747533798218 0.0900119394063949585 0.177275896072387695
-0.142471686005592346 0.0704930946230888367 0.177314803004264832
-0.142448246479034424 -0.369707703590393066 0.177427753806114197
-0.135266512632369995 -0.413713008165359497 0.178225100040435791
-0.142197340726852417 0.31936037540435791 0.178637146949768066
0.145482003688812256 -0.235003039240837097 0.178999602794647217
-0.14206184446811676 0.102993912994861603 0.179290309548377991
-0.141994193196296692 -0.304985135793685913 0.179616391658782959
-0.141994699835777283 0.402194708585739136 0.17961651086807251
-0.141961812973022461 0.201606661081314087 0.179772496223449707
0.145482003688812256 0.347542673349380493 0.179946720600128174
-0.141921162605285645 0.390945404767990112 0.179968446493148804
0.0254801120609045029 -0.413713008165359497 0.179980292916297913
0.1454792320728302 -0.0471717193722724915 0.180046901106834412
0.145482003688812256 0.331498414278030396 0.180096805095672607
0.126407384872436523 0.412753015756607056 0.180227756500244141
0.145482003688812256 0.305806636810302734 0.180572777986526489
0.145482003688812256 0.332595765590667725 0.180630341172218323
-0.141706854104995728 -0.156547442078590393 0.181032061576843262
0.145482003688812256 0.0265579037368297577 0.181214883923530579
0.145482003688812256 -0.335598617792129517 0.181413441896438599
-0.141626819968223572 -0.202383741736412048 0.181432828307151794
0.0689425989985466003 -0.413713008165359497 0.181982710957527161
-0.141503453254699707 0.207834422588348389 0.182050615549087524
-0.141482651233673096 0.214205279946327209 0.182154789566993713
-0.141480728983879089 0.0253066439181566238 0.182164430618286133
0.145482003688812256 0.227876991033554077 0.18270854651927948
0.145482003688812256 -0.101129390299320221 0.183043718338012695
0.0377831608057022095 0.413713008165359497 0.183287173509597778
-0.141250982880592346 -0.152948945760726929 0.183314904570579529
-0.141218572854995728 0.387730032205581665 0.183477222919464111
0.145482003688812256 -0.281916379928588867 0.183691263198852539
0.145482003688812256 0.112839005887508392 0.183990508317947388
0.145482003688812256 -0.0314336493611335754 0.184097170829772949
0.145482003688812256 0.28600466251373291 0.184531673789024353
-0.141007870435714722 -0.0010745608014985919 0.184532031416893005
-0.135221883654594421 0.413668185472488403 0.184933140873908997
0.145482003688812256 0.204970866441726685 0.184965938329696655
-0.0439900681376457214 0.412712991237640381 0.184971749782562256
0.145482003688812256 -0.0585566200315952301 0.184980735182762146
0.0938307866454124451 0.413007825613021851 0.185002729296684265
0.145482003688812256 -0.0516426339745521545 0.185065895318984985
-0.0112764416262507439 -0.413713008165359497 0.185089856386184692
0.145482003688812256 -0.277272135019302368 0.185411572456359863
0.145482003688812256 -0.287536352872848511 0.185553655028343201
-0.140708208084106445 -0.239961221814155579 0.186031371355056763
-0.140671074390411377 0.0158413555473089218 0.186217263340950012
-0.0803645700216293335 -0.413713008165359497 0.186318427324295044
-0.140635818243026733 0.379051357507705688 0.186393693089485168
0.11733061820268631 -0.413713008165359497 0.186420559883117676
-0.140578478574752808 -0.187514543533325195 0.186681687831878662
0.0511543862521648407 0.413701474666595459 0.18702089786529541
-0.00814322475343942642 -0.413713008165359497 0.187258720397949219
0.145482003688812256 -0.303389489650726318 0.187264695763587952
-0.14035208523273468 0.177717715501785278 0.187845408916473389
-0.140275463461875916 -0.389302432537078857 0.188239216804504395
0.145482003688812256 -0.188752114772796631 0.188242882490158081
-0.140177518129348755 -0.0852688178420066833 0.188742667436599731
-0.140106752514839172 -0.288360267877578735 0.189106374979019165
-0.140048801898956299 0.307948172092437744 0.18940424919128418
0.145482003688812256 0.293742060661315918 0.189778417348861694
0.145482003688812256 -0.0941324681043624878 0.189876347780227661
0.145520210266113281 0.139124736189842224 0.189945027232170105
0.145482003688812256 -0.376419246196746826 0.189997658133506775
0.0165076516568660736 0.413713008165359497 0.190034598112106323
0.14552345871925354 0.253385245800018311 0.190397918224334717
0.145482003688812256 -0.338924616575241089 0.190442711114883423
0.145482003688812256 0.384965002536773682 0.191157981753349304
-0.139676272869110107 0.0141563722863793373 0.191309139132499695
-0.139666512608528137 -0.201392814517021179 0.191358000040054321
0.145576149225234985 0.152908191084861755 0.191872656345367432
-0.0258568562567234039 0.412712991237640381 0.192027658224105835
0.145518958568572998 0.31868213415145874 0.192080363631248474
-0.139475271105766296 0.21610693633556366 0.192315563559532166
-0.139421805739402771 -0.107627436518669128 0.192583248019218445
0.0691614449024200439 -0.413713008165359497 0.192585498094558716
-0.139384299516677856 0.358685702085494995 0.192771047353744507
0.145329847931861877 -0.409781128168106079 0.192923009395599365
-0.139344573020935059 -0.0695841312408447266 0.192969948053359985
-0.0992631465196609497 -0.413713008165359497 0.193043872714042664
-0.13926735520362854 0.0012046261690557003 0.193356528878211975
0.145591408014297485 0.295049995183944702 0.193855062127113342
-0.139076098799705505 -0.323303341865539551 0.194314166903495789
0.145611703395843506 -0.0955365747213363647 0.194428771734237671
-0.139026165008544922 -0.37515491247177124 0.194564148783683777
0.114992856979370117 -0.413713008165359497 0.194595456123352051
-0.139016374945640564 0.328825503587722778 0.194613173604011536
-0.136828333139419556 0.413062185049057007 0.194650769233703613
-0.139001086354255676 -0.0835573971271514893 0.194689750671386719
-0.138986095786094666 0.343149304389953613 0.194764778017997742
-0.138982713222503662 0.248249337077140808 0.194781705737113953
0.1456717848777771 0.16033470630645752 0.194794595241546631
0.145643293857574463 -0.0146630890667438507 0.195202454924583435
0.145654752850532532 0.321444392204284668 0.1954069584608078
0.145675748586654663 0.0632460489869117737 0.195435002446174622
0.145658105611801147 -0.333597242832183838 0.195647791028022766
-0.138781353831291199 0.0920104160904884338 0.195789113640785217
-0.0772836506366729736 0.412712991237640381 0.196129605174064636
-0.138681337237358093 -0.255324959754943848 0.196289092302322388
0.145474076271057129 -0.235972553491592407 0.196400254964828491
0.145471319556236267 -0.0121931061148643494 0.196411535143852234
-0.138654261827468872 -0.0126598458737134933 0.196424469351768494
0.14544224739074707 -0.396175473928451538 0.196530401706695557
-0.0799170881509780884 0.412712991237640381 0.196649342775344849
0.145333647727966309 -0.208746284246444702 0.196974381804466248
-0.138472765684127808 0.32083699107170105 0.197331726551055908
-0.138438746333122253 0.133366554975509644 0.197501793503761292
0.00554626435041427612 0.413453221321105957 0.1975117027759552
0.145409375429153442 0.167828202247619629 0.198181256651878357
0.144912317395210266 -0.138614878058433533 0.198697075247764587
-0.0572215914726257324 -0.413713008165359497 0.198907226324081421
0.144439488649368286 0.359958022832870483 0.199105113744735718
0.144487842917442322 -0.0502603910863399506 0.199164196848869324
0.144442513585090637 -0.058626759797334671 0.19921170175075531
0.144301518797874451 -0.164456948637962341 0.199359476566314697
0.144220620393753052 -0.256145656108856201 0.19944426417350769
0.143735527992248535 0.407663792371749878 0.199501276016235352
0.137190461158752441 0.412638276815414429 0.199577257037162781
0.143954157829284668 0.214335739612579346 0.199603110551834106
0.143643796443939209 -0.259608805179595947 0.20004880428314209
0.143597021698951721 0.120045408606529236 0.200111672282218933
-0.137889862060546875 0.395709007978439331 0.200193166732788086
0.143498316407203674 -0.0644036829471588135 0.200201272964477539
-0.137856245040893555 -0.393285781145095825 0.200357481837272644
0.140474602580070496 0.35409313440322876 0.200397595763206482
0.140379741787910461 0.0674511566758155823 0.200407087802886963
0.139900729060173035 0.370974034070968628 0.200451403856277466
-0.137809053063392639 -0.0342778898775577545 0.200575157999992371
-0.0556462705135345459 -0.413713008165359497 0.200706332921981812
0.13698229193687439 0.345747560262680054 0.200709402561187744
-0.137475147843360901 0.411888599395751953 0.20071960985660553
0.135638371109962463 0.314966738224029541 0.200846165418624878
0.136087045073509216 0.00467855390161275864 0.20095379650592804
-0.137720197439193726 -0.0823742002248764038 0.200984850525856018
-0.0153448088094592094 -0.413713008165359497 0.200993806123733521
0.133879080414772034 0.347861826419830322 0.201150760054588318
0.137919098138809204 -0.390000522136688232 0.2011757493019104
0.139492720365524292 -0.119231484830379486 0.201191037893295288
-0.137668728828430176 -0.353638947010040283 0.201222196221351624
0.137808188796043396 -0.0200230609625577927 0.201485157012939453
0.131633669137954712 0.389967292547225952 0.201539501547813416
0.130689710378646851 0.0428978540003299713 0.201702699065208435
0.130502477288246155 0.0868695303797721863 0.201735049486160278
0.136182799935340881 -0.135167583823204041 0.201768934726715088
0.129933327436447144 0.357615292072296143 0.201833412051200867
0.135613307356834412 -0.136839553713798523 0.201867550611495972
0.135516494512557983 -0.24855002760887146 0.201884269714355469
0.129532426595687866 0.327839642763137817 0.201902687549591064
0.133160576224327087 -0.0624740421772003174 0.202291101217269897
0.133137881755828857 -0.112759858369827271 0.202295020222663879
0.13155759871006012 -0.272691518068313599 0.202567920088768005
0.130963936448097229 -0.35764545202255249 0.202619835734367371
-0.122216783463954926 -0.413713008165359497 0.20270875096321106
0.129942148923873901 -0.291635036468505859 0.202847018837928772
-0.0894646048545837402 -0.413713008165359497 0.202941969037055969
-0.0645856410264968872 0.412712991237640381 0.203063100576400757
0.122270792722702026 0.242772325873374939 0.203155249357223511
0.127917230129241943 -0.0578961484134197235 0.203196868300437927
0.127849802374839783 -0.269975930452346802 0.203208521008491516
-0.137150585651397705 -0.401788055896759033 0.203264430165290833
-0.137015566229820251 -0.227730706334114075 0.203564882278442383
-0.136942371726036072 -0.125253617763519287 0.20372772216796875
0.0799811631441116333 0.412712991237640381 0.20386098325252533
-0.136766672134399414 0.139421641826629639 0.204118609428405762
0.121808931231498718 -0.10709216445684433 0.20424969494342804
-0.136697202920913696 0.0876458585262298584 0.20427316427230835
0.118162713944911957 -0.339448124170303345 0.204408943653106689
0.120419412851333618 -0.0520311705768108368 0.204488039016723633
0.113960392773151398 -0.396589726209640503 0.204565897583961487
0.11957675963640213 -0.295578986406326294 0.204632580280303955
-0.136530980467796326 -0.320449501276016235 0.204642951488494873
0.113494202494621277 0.280393272638320923 0.204646363854408264
0.113157168030738831 0.0957305803894996643 0.204704523086547852
0.11301025003194809 0.37815016508102417 0.20472988486289978
0.11292622983455658 0.0772802755236625671 0.204744383692741394
-0.136452585458755493 0.0615547001361846924 0.204817354679107666
0.112323306500911713 0.23354029655456543 0.204848453402519226
0.112265966832637787 0.180704027414321899 0.204858347773551941
-0.13641078770160675 0.121589519083499908 0.204910352826118469
0.117054015398025513 -0.0798812955617904663 0.205067768692970276
0.116498686373233795 -0.043031889945268631 0.205163717269897461
0.11631455272436142 -0.244373425841331482 0.205195531249046326
0.110133521258831024 0.384376883506774902 0.20524163544178009
0.0925454124808311462 0.412541627883911133 0.205306082963943481
0.1090993732213974 0.290753632783889771 0.205429166555404663
0.108803659677505493 0.0614375360310077667 0.205482795834541321
-0.135936573147773743 -0.40788915753364563 0.205565884709358215
0.108039543032646179 0.199291080236434937 0.205616697669029236
0.0231185294687747955 -0.413713008165359497 0.205792292952537537
0.107013225555419922 0.186239868402481079 0.205793961882591248
0.0110054239630699158 -0.413713008165359497 0.205813437700271606
0.111563704907894135 -0.081393800675868988 0.206019535660743713
0.111360803246498108 -0.0928797200322151184 0.206054806709289551
0.110802091658115387 -0.152385249733924866 0.206151917576789856
0.110620371997356415 -0.136649549007415771 0.206183508038520813
0.104180693626403809 0.190609902143478394 0.206283211708068848
0.104172036051750183 0.157274708151817322 0.206284701824188232
0.104133166372776031 0.294164508581161499 0.206291422247886658
0.103979215025901794 0.196255996823310852 0.206318020820617676
-0.135363742709159851 -0.0397682338953018188 0.206450268626213074
-0.135363250970840454 0.321532458066940308 0.206450849771499634
0.108815886080265045 -0.256635934114456177 0.2064971923828125
0.0923948734998703003 0.412085950374603271 0.206756085157394409
0.101318389177322388 -0.374175280332565308 0.206777870655059814
0.107056483626365662 -0.0439689606428146362 0.206801295280456543
0.10307776927947998 -0.293193519115447998 0.206892579793930054
0.106230109930038452 -0.234223023056983948 0.206944093108177185
-0.134920582175254822 -0.223395347595214844 0.206979617476463318
0.10008915513753891 0.106697402894496918 0.206990301609039307
0.100060552358627319 0.118988841772079468 0.206995248794555664
0.103455342352390289 -0.283549249172210693 0.207022413611412048
0.105504341423511505 -0.270874917507171631 0.207068055868148804
-0.12897859513759613 0.413252770900726318 0.207235902547836304
-0.134705051779747009 0.0482874736189842224 0.20723704993724823
-0.134704738855361938 0.0721538066864013672 0.207237422466278076
0.0986421182751655579 0.0936825498938560486 0.207240074872970581
0.0540766604244709015 -0.413713008165359497 0.207344293594360352
0.0110069466754794121 -0.413713008165359497 0.207483544945716858
-0.134468451142311096 0.0580733343958854675 0.207510143518447876
0.0970338210463523865 0.0647818297147750854 0.207517579197883606
0.0965680927038192749 -0.299143195152282715 0.20764605700969696
0.0990397781133651733 -0.272446393966674805 0.207786470651626587
-0.134129524230957031 -0.38466528058052063 0.207870557904243469
0.0943801179528236389 0.0961181074380874634 0.207969158887863159
0.0941639915108680725 0.174508750438690186 0.208004966378211975
-0.133972525596618652 -0.357970207929611206 0.208037495613098145
0.0938865020871162415 -0.336937069892883301 0.208050966262817383
-0.133953005075454712 -0.195216000080108643 0.208058252930641174
0.0996242314577102661 -0.259188413619995117 0.208064034581184387
0.0992254167795181274 -0.0591815486550331116 0.208153381943702698
0.092617429792881012 0.0206519104540348053 0.208261266350746155
-0.133702531456947327 0.400120377540588379 0.208324745297431946
0.0981239005923271179 -0.0739316269755363464 0.208343356847763062
0.0969440564513206482 -0.114707306027412415 0.208546832203865051
0.0941263511776924133 -0.256392329931259155 0.208586990833282471
-0.133345752954483032 0.227842703461647034 0.208703994750976562
0.0953447669744491577 -0.0788950100541114807 0.208822578191757202
0.0892351195216178894 0.366503238677978516 0.208834260702133179
-0.133169889450073242 -0.00478766346350312233 0.208891004323959351
0.0886261835694313049 -0.385920017957687378 0.208939552307128906
0.0940735563635826111 -0.212161928415298462 0.209040999412536621
-0.00591611582785844803 -0.413713008165359497 0.209047555923461914
0.0935024023056030273 -0.112219899892807007 0.209139138460159302
0.0871993899345397949 0.0221555288881063461 0.209186241030693054
0.0869046226143836975 -0.286550194025039673 0.209237217903137207
-0.132816776633262634 -0.313009142875671387 0.209266483783721924
0.088732108473777771 0.405465483665466309 0.20927119255065918
0.086604773998260498 0.15032707154750824 0.209289059042930603
0.0781615301966667175 0.41205066442489624 0.209385678172111511
-0.132684454321861267 0.361081838607788086 0.209407195448875427
0.0904360711574554443 -0.162726983428001404 0.209667384624481201
0.0828236043453216553 0.245407551527023315 0.209958642721176147
0.0828155428171157837 0.40177568793296814 0.210025757551193237
-0.0695813447237014771 0.412712991237640381 0.21004168689250946
-0.132005289196968079 -0.172989308834075928 0.210129395127296448
0.0816398933529853821 0.319096922874450684 0.210173919796943665
-0.131897419691085815 -0.27082476019859314 0.210244089365005493
0.0811235606670379639 0.0395833812654018402 0.210266381502151489
0.0866936147212982178 -0.142577454447746277 0.21031525731086731
0.0861347392201423645 -0.122764654457569122 0.210412114858627319
0.0791690051555633545 0.221310153603553772 0.210604071617126465
0.0849462971091270447 -0.186537429690361023 0.210617974400520325
-0.13154013454914093 -0.229551360011100769 0.210624009370803833
0.0790118947625160217 0.047832190990447998 0.210631221532821655
-0.131406053900718689 -0.16974698007106781 0.210766583681106567
0.0780786648392677307 0.0161134153604507446 0.210792452096939087
0.0779062062501907349 0.344460666179656982 0.210822254419326782
0.077186189591884613 0.360929131507873535 0.210946649312973022
0.0771646052598953247 0.25732952356338501 0.210950374603271484
0.0767937973141670227 0.0134939514100551605 0.211014434695243835
0.0767122358083724976 -0.337190449237823486 0.211029529571533203
-0.131082385778427124 -0.28879094123840332 0.211110770702362061
0.0764756202697753906 0.41087716817855835 0.21111084520816803
-0.131074190139770508 -0.23500552773475647 0.211119472980499268
-0.131025999784469604 0.0654357448220252991 0.21117071807384491
0.0753600671887397766 0.167228132486343384 0.211262136697769165
-0.130895063281059265 0.0671646520495414734 0.211309939622879028
0.0809385105967521667 -0.0257735960185527802 0.211314275860786438
0.0750191658735275269 0.315225869417190552 0.211321026086807251
0.0748649314045906067 0.098393365740776062 0.211347669363021851
-0.130713567137718201 -0.0559365823864936829 0.211502939462661743
0.0794586017727851868 -0.0734146907925605774 0.211569637060165405
0.0734050869941711426 -0.32926177978515625 0.21160086989402771
0.0733636841177940369 0.0243469253182411194 0.211607024073600769
0.0791850686073303223 -0.0843515470623970032 0.211616829037666321
0.0724920406937599182 0.176004722714424133 0.211757615208625793
0.0779590383172035217 -0.0293801799416542053 0.211828380823135376
-0.130391627550125122 0.0175648052245378494 0.211845278739929199
0.0715293809771537781 0.0779448747634887695 0.211918294429779053
0.070086359977722168 0.388189405202865601 0.212158650159835815
0.0698777511715888977 -0.399712145328521729 0.212193801999092102
0.0705682933330535889 -0.192720174789428711 0.212380111217498779
0.0687457174062728882 0.291607677936553955 0.212381944060325623
0.0677891820669174194 -0.380347341299057007 0.212543204426765442
0.0677341744303703308 -0.392052918672561646 0.212552711367607117
0.0725780576467514038 -0.0783026218414306641 0.21275763213634491
0.0725416168570518494 -0.110649429261684418 0.212763682007789612
0.0656496062874794006 0.241109669208526611 0.212912604212760925
0.0656006112694740295 -0.25081104040145874 0.212921068072319031
0.0704928860068321228 -0.16579321026802063 0.212941333651542664
0.0662986189126968384 -0.183288231492042542 0.212944298982620239
-0.129126504063606262 -0.0138368560001254082 0.213190510869026184
0.0637295544147491455 0.272137761116027832 0.213244453072547913
0.0627530738711357117 0.330664694309234619 0.213413327932357788
0.062258746474981308 0.0809142515063285828 0.213498830795288086
0.0621614977717399597 0.102600567042827606 0.213515639305114746
-0.128718286752700806 0.285091221332550049 0.213624566793441772
0.0613927580416202545 -0.381556212902069092 0.213651150465011597
0.0610708035528659821 0.118292480707168579 0.213709428906440735
0.0608993656933307648 0.0535563379526138306 0.21374046802520752
0.0608653612434864044 -0.275507420301437378 0.213746637105941772
0.0639564022421836853 -0.000169169405126012862 0.213787838816642761
0.0606220699846744537 0.198109909892082214 0.213790670037269592
0.0599668696522712708 0.0439266711473464966 0.213909298181533813
0.0593599379062652588 -0.153235659003257751 0.214111298322677612
0.0587048456072807312 0.195687845349311829 0.214137762784957886
0.0583277009427547455 -0.266943067312240601 0.214205324649810791
-0.128152236342430115 -0.269889652729034424 0.214226454496383667
0.0441018380224704742 -0.41309693455696106 0.214366152882575989
0.0626783743500709534 -0.0241322647780179977 0.214440569281578064
0.0569002479314804077 0.296716183423995972 0.214451894164085388
0.0554743371903896332 0.310032844543457031 0.214698225259780884
0.0544235631823539734 -0.136847585439682007 0.214896693825721741
0.0542264804244041443 -0.166809007525444031 0.214913785457611084
0.0568416863679885864 0.409891277551651001 0.214943081140518188
0.0535476915538311005 -0.212039008736610413 0.215031072497367859
0.0534661747515201569 -0.398720830678939819 0.215045154094696045
0.0590203367173671722 -0.0858424603939056396 0.215097159147262573
0.0530169829726219177 0.134971976280212402 0.215122789144515991
-0.127273008227348328 0.121632695198059082 0.215161159634590149
-0.127244725823402405 0.2922535240650177 0.215191230177879333
0.0524547174572944641 0.0437168590724468231 0.215219944715499878
0.0498014837503433228 0.0902667567133903503 0.215678438544273376
0.0493282079696655273 0.0775707662105560303 0.215760216116905212
0.0491184219717979431 0.0460558682680130005 0.215796470642089844
0.0486124083399772644 0.236638635396957397 0.215883895754814148
0.0483542010188102722 -0.280360907316207886 0.215928494930267334
0.0482043363153934479 -0.235245734453201294 0.215954393148422241
0.0479763709008693695 0.391900628805160522 0.215993776917457581
0.0477064326405525208 0.202788427472114563 0.216040417551994324
0.0474530309438705444 -0.239683017134666443 0.216084197163581848
0.053215906023979187 -0.0749378055334091187 0.216103345155715942
-0.126223891973495483 0.132458657026290894 0.216276347637176514
0.0456214137375354767 0.289925813674926758 0.216400653123855591
0.0454131923615932465 0.178859561681747437 0.216436624526977539
0.0450455285608768463 0.257764846086502075 0.216499462723731995
0.0508396923542022705 -0.0778760313987731934 0.216513559222221375
-0.125893011689186096 -0.188484549522399902 0.2166280597448349
-0.125799566507339478 0.141446128487586975 0.216727405786514282
0.0431670472025871277 -0.173782601952552795 0.216810315847396851
0.043030422180891037 -0.195575520396232605 0.216832920908927917
0.0430223904550075531 0.143984004855155945 0.21683424711227417
-0.125698462128639221 -0.0425016880035400391 0.216834872961044312
0.0420693531632423401 0.261854201555252075 0.216991961002349854
-0.125412806868553162 0.143170192837715149 0.21713721752166748
-0.125405475497245789 0.0182505380362272263 0.217144966125488281
0.0418278612196445465 0.00513301696628332138 0.217179492115974426
0.0408922210335731506 0.183777987957000732 0.21718674898147583
0.0395228788256645203 -0.128383740782737732 0.217422887682914734
-0.125087842345237732 -0.0539432354271411896 0.21748100221157074
0.0391504541039466858 -0.130970776081085205 0.217487260699272156
0.0391005277633666992 0.270317256450653076 0.217495888471603394
0.0384826250374317169 -0.193325862288475037 0.217602714896202087
0.0382646098732948303 -0.210856825113296509 0.217640399932861328
0.0377703197300434113 -0.340906351804733276 0.217725843191146851
0.0377589613199234009 -0.280714184045791626 0.217727810144424438
0.0375100784003734589 0.16371193528175354 0.217770844697952271
0.0370365120470523834 -0.311714023351669312 0.217852726578712463
0.0428126491606235504 -0.013348722830414772 0.217882543802261353
0.0360184460878372192 -0.35335773229598999 0.218028783798217773
-0.124567724764347076 0.393464922904968262 0.218031272292137146
0.035809151828289032 0.102435305714607239 0.218064978718757629
-0.124369658529758453 -0.157506749033927917 0.218240782618522644
0.03470630943775177 0.197838574647903442 0.218255683779716492
0.0346197523176670074 -0.345565766096115112 0.218270644545555115
-0.12433672696352005 -0.370160609483718872 0.218275636434555054
0.0383681617677211761 -0.0514274798333644867 0.218361720442771912
0.0339833833277225494 0.260510474443435669 0.218384698033332825
0.0339596420526504517 0.334181278944015503 0.218389019370079041
0.0336299948394298553 0.341442197561264038 0.218449071049690247
0.0329415351152420044 0.180306240916252136 0.218574494123458862
0.0328318700194358826 -0.346393585205078125 0.218594476580619812
0.032218635082244873 0.112540781497955322 0.218706190586090088
0.0297818481922149658 -0.411866575479507446 0.218959078192710876
0.0298939812928438187 0.118495851755142212 0.219118207693099976
0.0292733851820230484 0.383540034294128418 0.219225436449050903
-0.123330086469650269 -0.108191072940826416 0.219341486692428589
0.0285400860011577606 -0.0849130153656005859 0.219352021813392639
0.0281302295625209808 0.313814073801040649 0.219422951340675354
0.0277176406234502792 -0.253368496894836426 0.219494253396987915
0.0271158702671527863 -0.0995693132281303406 0.21959821879863739
0.0270394645631313324 0.171490713953971863 0.219611406326293945
0.0269629340618848801 0.251157283782958984 0.219624638557434082
0.0269454400986433029 0.195436075329780579 0.219627648591995239
0.0258635152131319046 0.14704565703868866 0.219814613461494446
0.0253129024058580399 0.134602606296539307 0.219909772276878357
0.024461766704916954 0.246771678328514099 0.220056861639022827
-0.00306876655668020248 -0.413674831390380859 0.220121458172798157
0.0236826147884130478 -0.352560460567474365 0.220191508531570435
0.0280900783836841583 -0.0218999441713094711 0.220202013850212097
0.0232979096472263336 -0.119854390621185303 0.220257982611656189
0.0232739206403493881 0.239721432328224182 0.220262125134468079
-0.12242000550031662 -0.011549842543900013 0.220309212803840637
0.02676432766020298 -0.0212023817002773285 0.220389634370803833
0.0224964804947376251 0.275049358606338501 0.220396474003791809
0.0264501739293336868 0.027058284729719162 0.220418691635131836
0.0202331691980361938 -0.107757203280925751 0.220787495374679565
0.0260634180158376694 0.00349175324663519859 0.220794722437858582
0.0196749288588762283 0.138068050146102905 0.220883935689926147
-0.121792487800121307 0.243502259254455566 0.220976486802101135
0.0191062632948160172 -0.333911746740341187 0.220982179045677185
-0.121750198304653168 0.319961220026016235 0.221021443605422974
0.0206318330019712448 0.0661459937691688538 0.221033304929733276
0.0188036616891622543 0.137783467769622803 0.221034452319145203
0.0171036142855882645 -0.261816442012786865 0.221323251724243164
0.0162425413727760315 -0.158657684922218323 0.221466347575187683
0.0154655231162905693 -0.29655805230140686 0.221595481038093567
0.0154420686885714531 0.104307755827903748 0.221598729491233826
0.0205479413270950317 0.0169260911643505096 0.221746698021888733
-0.120976358652114868 -0.0415725447237491608 0.22184436023235321
0.0137307979166507721 0.100299641489982605 0.221894696354866028
-0.120872907340526581 0.34193691611289978 0.221954375505447388
0.0132525330409407616 -0.126978948712348938 0.22196507453918457
0.0172715373337268829 0.0609179176390171051 0.221984609961509705
0.0130243953317403793 -0.146406218409538269 0.222004532814025879
0.0136191314086318016 0.094130396842956543 0.222074136137962341
-0.120704546570777893 -0.239895358681678772 0.222133442759513855
-0.120564773678779602 0.129749596118927002 0.222282096743583679
0.0112620992586016655 -0.344521135091781616 0.222309380769729614
0.0112159065902233124 0.3101157546043396 0.222317367792129517
0.0111642731353640556 -0.389427900314331055 0.222326308488845825
0.0109404306858778 0.312835812568664551 0.222365006804466248
-0.120462223887443542 -0.0570132806897163391 0.22239115834236145
0.0101033952087163925 -0.118760474026203156 0.222509801387786865
-0.120296955108642578 0.382382512092590332 0.222566917538642883
0.00933995749801397324 0.127921596169471741 0.222641706466674805
0.00906698312610387802 0.249665647745132446 0.222688987851142883
0.0107536101713776588 0.0975871607661247253 0.222740128636360168
0.00857931841164827347 -0.290831714868545532 0.222773313522338867
0.00847544986754655838 0.14478302001953125 0.222791269421577454
0.00839052535593509674 -0.166085049510002136 0.222805961966514587
-0.119992963969707489 -0.0872412100434303284 0.222890213131904602
0.00776773551478981972 -0.203008875250816345 0.222913637757301331
0.00668065436184406281 0.358040839433670044 0.223105341196060181
0.00536507042124867439 0.355153322219848633 0.223343819379806519
0.00502779008820652962 0.241765975952148438 0.223404958844184875
0.00494196312502026558 0.347531437873840332 0.223420515656471252
0.00485851243138313293 -0.102790191769599915 0.223435655236244202
0.00565268192440271378 0.129231378436088562 0.22344738245010376
0.00477419979870319366 -0.216766193509101868 0.223450928926467896
0.00477312272414565086 -0.293040573596954346 0.223451122641563416
0.00445280270650982857 -0.405954450368881226 0.223519116640090942
0.00389961106702685356 0.294323474168777466 0.223609462380409241
-0.0998060181736946106 -0.413713008165359497 0.223810896277427673
0.00271420879289507866 0.287613391876220703 0.223814517259597778
-0.119067877531051636 0.256661117076873779 0.223874062299728394
0.00236437143757939339 -0.159209012985229492 0.22387520968914032
0.00215380359441041946 0.193690031766891479 0.223911195993423462
0.0026608023326843977 0.145176857709884644 0.223915696144104004
0.000235180254094302654 0.334168463945388794 0.224242180585861206
-0.000310037430608645082 -0.0637357160449028015 0.224337175488471985
-0.00147377676330506802 -0.0774132981896400452 0.224538087844848633
-0.00157949095591902733 -0.136725783348083496 0.224556326866149902
-0.118404008448123932 0.0182549040764570236 0.224583283066749573
-0.00222763232886791229 0.309248894453048706 0.224667564034461975
0.00265523744747042656 0.0899990275502204895 0.224837973713874817
0.00165779131930321455 0.0741232186555862427 0.225011363625526428
-0.117998749017715454 -0.172836571931838989 0.225016236305236816
-0.00429574493318796158 -0.128172323107719421 0.225025191903114319
-0.00509704882279038429 -0.31526598334312439 0.225163504481315613
-0.117813475430011749 0.307229071855545044 0.225214168429374695
-0.117532230913639069 -0.193347737193107605 0.225514620542526245
-0.00733529031276702881 -0.312338769435882568 0.225550189614295959
-0.117490321397781372 -0.24230542778968811 0.225559398531913757
-0.00805168598890304565 -0.0632719546556472778 0.225673958659172058
-0.00941838230937719345 -0.249813199043273926 0.225910067558288574
-0.0106389801949262619 -0.198897674679756165 0.226113259792327881
-0.0110018104314804077 -0.0457159020006656647 0.226173609495162964
-0.116872392594814301 -0.120098136365413666 0.226219534873962402
-0.00891131535172462463 0.168877094984054565 0.22629915177822113
-0.0620293021202087402 -0.413713008165359497 0.226581946015357971
-0.00754922302439808846 0.0284506622701883316 0.226601138710975647
-0.00767054595053195953 0.0158885195851325989 0.226622238755226135
-0.013834136538207531 0.342679828405380249 0.226645037531852722
-0.116239733994007111 -0.295615166425704956 0.22689250111579895
-0.0152811240404844284 -0.221169427037239075 0.226895585656166077
-0.0153823485597968102 0.241409853100776672 0.226912602782249451
-0.0159804560244083405 0.293580174446105957 0.227015972137451172
-0.116103649139404297 0.0394466184079647064 0.227037191390991211
-0.016215931624174118 -0.334678918123245239 0.22705744206905365
-0.115983709692955017 -0.106487877666950226 0.227164715528488159
-0.115976691246032715 -0.0398458726704120636 0.227172166109085083
-0.0168918818235397339 -0.0973074734210968018 0.227174475789070129
-0.11585148423910141 -0.349176317453384399 0.227305293083190918
-0.0184280332177877426 0.326627433300018311 0.227439150214195251
-0.0185321290045976639 -0.0906918197870254517 0.227457672357559204
-0.11558513343334198 -0.275630563497543335 0.227588489651679993
-0.0194512475281953812 -0.330967754125595093 0.227616339921951294
-0.0198509860783815384 0.338210970163345337 0.227685227990150452
-0.0201171338558197021 0.270698398351669312 0.227731257677078247
-0.115445040166378021 0.157485052943229675 0.227737441658973694
-0.115232519805431366 -0.197645917534828186 0.227963387966156006
-0.115221425890922546 0.174844622611999512 0.227975189685821533
-0.115071207284927368 0.311819881200790405 0.228134900331497192
