ply
format ascii 1.0
element vertex 722
property float x
property float y
property float z
end_header
-0.208441123366355896 0.228180795907974243 0.00283048115670681
-0.228144779801368713 0.191963911056518555 0.0029482375830411911
0.237602919340133667 0.207699790596961975 0.00322544178925454617
0.237134769558906555 0.045860588550567627 0.00390593847259879112
-0.0976673364639282227 -0.222314819693565369 0.00397239578887820244
0.23691113293170929 -0.048181828111410141 0.00405255146324634552
0.0857779234647750854 -0.308902561664581299 0.00406744098290801048
-0.174376383423805237 0.268561244010925293 0.00429985485970973969
0.236627116799354553 -0.0473049283027648926 0.00444251392036676407
0.236705750226974487 0.0762338414788246155 0.00453076884150505066
-0.119520708918571472 0.30350416898727417 0.00481541221961379051
-0.148826271295547485 -0.0932240188121795654 0.00499283848330378532
0.236253201961517334 -0.276825129985809326 0.00551986787468194962
0.234047442674636841 0.306470632553100586 0.00561628537252545357
-0.243016958236694336 0.141790926456451416 0.00652260938659310341
0.235412687063217163 0.211124613881111145 0.00653069280087947845
0.235349804162979126 0.176853984594345093 0.0066682053729891777
0.234687864780426025 0.199149563908576965 0.00779284816235303879
-0.227746844291687012 0.192990243434906006 0.00799034908413887024
-0.0402544289827346802 -0.308842658996582031 0.00816737115383148193
0.23206290602684021 -0.180380344390869141 0.00827764347195625305
0.232012689113616943 -0.0804743990302085876 0.00828583724796772003
0.231828793883323669 -0.123135820031166077 0.00832165032625198364
0.2335071861743927 0.0345319807529449463 0.00849320832639932632
0.233183309435844421 0.14224262535572052 0.00858941394835710526
0.231686338782310486 -0.26470482349395752 0.00868299975991249084
0.233054116368293762 0.180350199341773987 0.00872053764760494232
0.23266330361366272 0.205709517002105713 0.00875528622418642044
0.23237667977809906 0.00955986417829990387 0.00882920064032077789
0.232128545641899109 0.0841906294226646423 0.00890273787081241608
0.131520733237266541 -0.308902561664581299 0.00900978595018386841
0.226984068751335144 -0.238123148679733276 0.00918789487332105637
-0.128987833857536316 -0.128817319869995117 0.00926420930773019791
0.223505333065986633 -0.006552885752171278 0.00937358755618333817
0.228855222463607788 0.0225572381168603897 0.00939264427870512009
0.228046014904975891 0.10209500789642334 0.00945448409765958786
0.225506186485290527 0.168991640210151672 0.00967325270175933838
0.223607629537582397 -0.227040752768516541 0.009710678830742836
0.224468901753425598 0.15585288405418396 0.0097336871549487114
-0.148324131965637207 -0.0939475521445274353 0.00973639357835054398
0.22453656792640686 0.120661221444606781 0.00981833785772323608
0.176358923316001892 0.306434035301208496 0.010254349559545517
0.214795976877212524 -0.0442462079226970673 0.0102544352412223816
0.201849937438964844 -0.257777988910675049 0.0103913182392716408
-0.205745071172714233 0.232529178261756897 0.0104216746985912323
0.2159385085105896 -0.164437979459762573 0.0109509481117129326
0.187232285737991333 0.256763994693756104 0.011010478250682354
0.209297806024551392 -0.0371479801833629608 0.011091405525803566
0.215258881449699402 0.0406657718122005463 0.0111149726435542107
0.209638729691505432 0.214964210987091064 0.0112092234194278717
0.212700262665748596 -0.112317949533462524 0.0113418344408273697
0.213662460446357727 0.201330944895744324 0.011605188250541687
0.231163263320922852 -0.283305168151855469 0.0118598472326993942
0.207051441073417664 7.75739317759871483e-05 0.0119087137281894684
0.203122302889823914 0.034566923975944519 0.011989198625087738
0.191817536950111389 0.239226937294006348 0.0121479220688343048
0.20949062705039978 -0.163265123963356018 0.0124024217948317528
0.191925659775733948 -0.192597389221191406 0.0127734066918492317
0.204427853226661682 -0.211008012294769287 0.0128495348617434502
0.179143503308296204 -0.21927255392074585 0.0128540219739079475
0.0603286437690258026 0.306978464126586914 0.0129744904115796089
0.180065751075744629 -0.210588380694389343 0.0130850784480571747
0.189116418361663818 -0.0756146982312202454 0.013109961524605751
0.19067065417766571 0.0974739938974380493 0.0131561979651451111
0.186987593770027161 0.157550394535064697 0.0131670711562037468
0.19150194525718689 -0.0189838521182537079 0.0131902685388922691
-0.199822023510932922 -0.0338801294565200806 0.0132427765056490898
0.178328245878219604 -0.0871180072426795959 0.0132490098476409912
0.177922070026397705 -0.121974922716617584 0.0132535500451922417
0.204513669013977051 -0.165003836154937744 0.0133118461817502975
-0.180628523230552673 -0.0557683706283569336 0.0133536038920283318
0.196049049496650696 -0.0919572561979293823 0.0133784180507063866
0.196657091379165649 -0.157800793647766113 0.0134425796568393707
0.19795595109462738 0.0459963008761405945 0.0134704597294330597
0.176655352115631104 -0.100672692060470581 0.013769121840596199
-0.139783918857574463 -0.107600018382072449 0.0139371398836374283
-0.237323552370071411 0.039027240127325058 0.0141727114096283913
0.00227061565965414047 0.306375443935394287 0.0142810549587011337
-0.196307286620140076 0.244858652353286743 0.0145228588953614235
0.000285443617030978203 0.306493282318115234 0.0149871837347745895
0.0550119951367378235 0.0296742916107177734 0.0150582250207662582
0.0574457086622714996 0.0329789444804191589 0.0150587139651179314
-0.0266574956476688385 0.116285912692546844 0.0150589914992451668
0.115955553948879242 0.0647154673933982849 0.0150590185075998306
-0.0153475292026996613 0.104576453566551208 0.0150590920820832253
0.106084652245044708 0.0619750618934631348 0.0150591172277927399
0.053869348019361496 0.0472955629229545593 0.0150591256096959114
0.0307388044893741608 0.0491173528134822845 0.0150591256096959114
0.0877720266580581665 0.0645027235150337219 0.0150591256096959114
0.11317877471446991 0.0663812980055809021 0.0150591256096959114
0.0544561892747879028 0.069089159369468689 0.0150591256096959114
0.0109298974275588989 0.0747176259756088257 0.0150591256096959114
0.0875428169965744019 0.0756759867072105408 0.0150591256096959114
0.0838033854961395264 0.0825941413640975952 0.0150591256096959114
0.11399252712726593 0.0872798487544059753 0.0150591256096959114
-0.00994750391691923141 0.102124474942684174 0.0150591256096959114
0.00956097152084112167 0.110157862305641174 0.0150591256096959114
0.0553748235106468201 0.116541370749473572 0.0150591256096959114
0.030986979603767395 0.118311062455177307 0.0150591256096959114
0.109204657375812531 0.121604949235916138 0.0150591256096959114
0.0586582086980342865 0.127066135406494141 0.0150591256096959114
0.0313470736145973206 0.127423614263534546 0.0150591256096959114
0.102493077516555786 0.127951040863990784 0.0150591256096959114
0.101157613098621368 0.133260324597358704 0.0150591256096959114
0.0400727428495883942 0.141357406973838806 0.0150591256096959114
-0.0176562219858169556 0.142890557646751404 0.0150591256096959114
0.11031283438205719 0.149937868118286133 0.0150591256096959114
-0.00557061145082116127 0.160347834229469299 0.0150591256096959114
-0.00989201758056879044 0.163274958729743958 0.0150591256096959114
0.0793412551283836365 0.175609305500984192 0.0150591256096959114
0.0860689133405685425 0.180708214640617371 0.0150591256096959114
0.104196302592754364 0.184955224394798279 0.0150591256096959114
0.109869979321956635 0.185310080647468567 0.0150591256096959114
0.121352881193161011 0.196649476885795593 0.0150591256096959114
0.0319311991333961487 0.207738414406776428 0.0150591256096959114
0.092287600040435791 0.211983039975166321 0.0150591256096959114
0.0523582734167575836 0.215225681662559509 0.0150591256096959114
0.0218679346144199371 0.223840877413749695 0.0150591256096959114
0.0435165874660015106 0.225260868668556213 0.0150591256096959114
0.00943935289978981018 0.231783628463745117 0.0150591256096959114
0.013395301066339016 0.234539791941642761 0.0150591256096959114
-0.0761895477771759033 0.242216184735298157 0.0150591256096959114
0.0689168497920036316 0.25327533483505249 0.0150591256096959114
0.0179537590593099594 0.258143365383148193 0.0150591256096959114
-0.0535965003073215485 0.261009097099304199 0.0150591256096959114
-0.090757027268409729 0.265613973140716553 0.0150591256096959114
-0.0301724579185247421 0.265678346157073975 0.0150591256096959114
-0.00355751113966107368 0.265725135803222656 0.0150591256096959114
-0.0607278645038604736 0.265973031520843506 0.0150591256096959114
-0.0492630414664745331 -0.19163927435874939 0.0150894252583384514
-0.0286912210285663605 0.112440399825572968 0.0151073159649968147
-0.0356752946972846985 0.126287221908569336 0.0151111530140042305
0.0132984733209013939 0.0264119189232587814 0.0151474857702851295
0.137531563639640808 0.159032523632049561 0.0152012715116143227
-0.109438210725784302 0.249041572213172913 0.0152050890028476715
0.0146069200709462166 0.020914396271109581 0.0152260269969701767
-0.0714180916547775269 0.179650217294692993 0.0152421314269304276
0.172111749649047852 -0.00654197158291935921 0.0152931539341807365
-0.0535426922142505646 0.278677463531494141 0.0153284324333071709
-0.154733046889305115 0.0869562402367591858 0.0153519157320261002
-0.105287402868270874 0.280063092708587646 0.0153538165614008904
0.135458946228027344 0.0637078136205673218 0.0153635181486606598
0.138108685612678528 0.180765032768249512 0.0153912641108036041
-0.152360230684280396 0.0792583972215652466 0.0153946643695235252
-0.126794338226318359 0.272545516490936279 0.0154037335887551308
-0.123367287218570709 0.254767835140228271 0.0154511313885450363
-0.052457764744758606 -0.203020080924034119 0.015549222007393837
-0.0879155546426773071 0.0146874235942959785 0.0155636314302682877
-0.101930975914001465 0.0152034889906644821 0.0155650638043880463
-0.082442060112953186 -0.190598919987678528 0.0155753232538700104
-0.138840973377227783 0.061016324907541275 0.0156189315021038055
-0.210573643445968628 0.177108064293861389 0.0156558770686388016
-0.0482399016618728638 -0.044402632862329483 0.0156728532165288925
0.0561618991196155548 0.0188086777925491333 0.0156801305711269379
-0.0382155813276767731 -0.0356452204287052155 0.0157205220311880112
-0.172714918851852417 0.0879134908318519592 0.0157285183668136597
0.00483755860477685928 0.0114617040380835533 0.0157591067254543304
-0.0104524614289402962 0.0366441123187541962 0.0157654955983161926
-0.176654472947120667 0.094253048300743103 0.015771644189953804
0.0921023562550544739 0.033880237489938736 0.0157720204442739487
-0.141893908381462097 0.264944136142730713 0.01577763631939888
-0.126787751913070679 0.0363602563738822937 0.0157788004726171494
-0.0404566936194896698 -0.0559757091104984283 0.015780838206410408
-0.0920546501874923706 0.00406853016465902328 0.0158043000847101212
0.171959608793258667 0.225220710039138794 0.0158214624971151352
-0.0322898030281066895 0.0766295045614242554 0.0158317051827907562
-0.0051682773046195507 -0.102105490863323212 0.0159047339111566544
-0.186819523572921753 0.0998053029179573059 0.0159753989428281784
-0.174021944403648376 0.0793383568525314331 0.0159886684268712997
-0.0164320636540651321 0.030553797259926796 0.015999404713511467
-0.010580211877822876 0.0168118029832839966 0.0160015560686588287
-0.216137558221817017 0.127582281827926636 0.016016567125916481
-0.0985999256372451782 0.18661750853061676 0.0160227883607149124
0.0929459258913993835 0.0295106843113899231 0.0160247497260570526
0.171672806143760681 -0.122459858655929565 0.0160295944660902023
-0.196514680981636047 0.201754167675971985 0.0160470511764287949
-0.190097659826278687 0.00147508550435304642 0.0160484220832586288
0.137079223990440369 -0.227830961346626282 0.0160496216267347336
0.136089041829109192 0.01258127111941576 0.0160503722727298737
-0.0493419058620929718 -0.0130107775330543518 0.0160509254783391953
0.13529561460018158 -0.0364026613533496857 0.016051536425948143
0.13470032811164856 -0.263357937335968018 0.0160533208400011063
-0.186180248856544495 0.212763562798500061 0.0160543490201234818
-0.142930313944816589 0.114643827080726624 0.0160547792911529541
0.128672033548355103 -0.267513155937194824 0.0160571113228797913
-0.213432475924491882 0.0831767693161964417 0.0160572677850723267
0.130800172686576843 -0.217641070485115051 0.0160581246018409729
-0.053623497486114502 -0.255394577980041504 0.0160582959651947021
0.00893334858119487762 -0.103426180779933929 0.016058722510933876
-0.173557668924331665 0.152349933981895447 0.016058722510933876
-0.0778377503156661987 -0.146122440695762634 0.0160587243735790253
-0.119388118386268616 0.0882110223174095154 0.0160587485879659653
0.0657174363732337952 -0.264861404895782471 0.0160588249564170837
-0.0168041549623012543 -0.261626839637756348 0.0160588249564170837
-0.00361983431503176689 -0.25913625955581665 0.0160588249564170837
0.101376362144947052 -0.252440154552459717 0.0160588249564170837
-0.0456071570515632629 -0.246343791484832764 0.0160588249564170837
0.127387046813964844 -0.243522539734840393 0.0160588249564170837
0.00120127038098871708 -0.240616336464881897 0.0160588249564170837
-0.0165815707296133041 -0.23965899646282196 0.0160588249564170837
0.0525262542068958282 -0.238388881087303162 0.0160588249564170837
0.0734968557953834534 -0.232490003108978271 0.0160588249564170837
-0.00605598650872707367 -0.230958551168441772 0.0160588249564170837
0.0546395257115364075 -0.229500427842140198 0.0160588249564170837
0.067293994128704071 -0.221853092312812805 0.0160588249564170837
0.126462846994400024 -0.220238417387008667 0.0160588249564170837
-0.0357906036078929901 -0.218222230672836304 0.0160588249564170837
0.118920639157295227 -0.212698757648468018 0.0160588249564170837
0.126867279410362244 -0.207474648952484131 0.0160588249564170837
0.0936363637447357178 -0.202536657452583313 0.0160588249564170837
0.0576750971376895905 -0.201202616095542908 0.0160588249564170837
0.0188929792493581772 -0.198673933744430542 0.0160588249564170837
0.085935741662979126 -0.187349915504455566 0.0160588249564170837
0.129226729273796082 -0.183531641960144043 0.0160588249564170837
0.0434644706547260284 -0.182045593857765198 0.0160588249564170837
0.0594055727124214172 -0.172362223267555237 0.0160588249564170837
0.11063685268163681 -0.167462617158889771 0.0160588249564170837
0.0393454432487487793 -0.154309853911399841 0.0160588249564170837
-0.0609825961291790009 -0.14717528223991394 0.0160588249564170837
-0.0548933446407318115 -0.145788997411727905 0.0160588249564170837
-0.012504194863140583 -0.141544908285140991 0.0160588249564170837
0.0588307008147239685 -0.135707303881645203 0.0160588249564170837
0.0742411091923713684 -0.135654956102371216 0.0160588249564170837
0.00997327733784914017 -0.133724093437194824 0.0160588249564170837
0.00529909040778875351 -0.132911279797554016 0.0160588249564170837
0.108058013021945953 -0.127665325999259949 0.0160588249564170837
0.0697790682315826416 -0.120545439422130585 0.0160588249564170837
-0.0935439914464950562 -0.11672065407037735 0.0160588249564170837
0.0867391377687454224 -0.109254360198974609 0.0160588249564170837
0.11085055023431778 -0.105518117547035217 0.0160588249564170837
-0.0151857957243919373 -0.103882238268852234 0.0160588249564170837
0.0245170611888170242 -0.10333549976348877 0.0160588249564170837
-0.0990758240222930908 -0.10080622136592865 0.0160588249564170837
-0.0667680799961090088 -0.0896006003022193909 0.0160588249564170837
0.0828870236873626709 -0.0826053246855735779 0.0160588249564170837
0.0984325110912322998 -0.0825027450919151306 0.0160588249564170837
-0.0722287371754646301 -0.0811252966523170471 0.0160588249564170837
-0.0351766124367713928 -0.0810603946447372437 0.0160588249564170837
0.127730950713157654 -0.0766120105981826782 0.0160588249564170837
0.121581897139549255 -0.0748242735862731934 0.0160588249564170837
0.130280405282974243 -0.0683961436152458191 0.0160588249564170837
-0.115254156291484833 -0.0656529664993286133 0.0160588249564170837
-0.101967491209506989 -0.0613916851580142975 0.0160588249564170837
-0.0120185259729623795 -0.0565895885229110718 0.0160588249564170837
0.0944644436240196228 -0.0532108955085277557 0.0160588249564170837
0.0903325006365776062 -0.0518355928361415863 0.0160588249564170837
0.0403923355042934418 -0.0512188263237476349 0.0160588249564170837
-0.117238663136959076 -0.042747151106595993 0.0160588249564170837
-0.0806928426027297974 -0.0406677573919296265 0.0160588249564170837
-0.120700091123580933 -0.040570184588432312 0.0160588249564170837
0.0308783240616321564 -0.0317820198833942413 0.0160588249564170837
-0.0837092921137809753 -0.0316482186317443848 0.0160588249564170837
0.00521048903465270996 -0.0245217327028512955 0.0160588249564170837
0.0971483364701271057 -0.0145347146317362785 0.0160588249564170837
0.0852306932210922241 -0.0137046333402395248 0.0160588249564170837
0.106450349092483521 -0.013493918813765049 0.0160588249564170837
0.0461297817528247833 -0.011146235279738903 0.0160588249564170837
0.117856614291667938 -0.00904433894902467728 0.0160588249564170837
-0.00492163235321640968 -0.00030963728204369545 0.0160588249564170837
0.064255937933921814 -0.000230543198995292187 0.0160588249564170837
-0.173408076167106628 0.00155748287215828896 0.0160588249564170837
-0.0113896317780017853 0.00825701653957366943 0.0160588249564170837
0.0785294473171234131 0.0104851340875029564 0.0160588249564170837
-0.0493684671819210052 0.0128922145813703537 0.0160588249564170837
0.117528326809406281 0.0268084164708852768 0.0160588249564170837
-0.159305855631828308 0.0286079104989767075 0.0160588249564170837
-0.151507511734962463 0.0454527400434017181 0.0160588249564170837
-0.203725174069404602 0.0502459891140460968 0.0160588249564170837
-0.0940700694918632507 0.0653845295310020447 0.0160588249564170837
-0.0776916816830635071 0.0762307792901992798 0.0160588249564170837
-0.0645226538181304932 0.0764122903347015381 0.0160588249564170837
-0.100010022521018982 0.077199980616569519 0.0160588249564170837
-0.0883010029792785645 0.0814990848302841187 0.0160588249564170837
-0.0699699521064758301 0.0918533504009246826 0.0160588249564170837
-0.198971837759017944 0.107632391154766083 0.0160588249564170837
-0.21540360152721405 0.114253595471382141 0.0160588249564170837
-0.0629541352391242981 0.115855686366558075 0.0160588249564170837
-0.11482112854719162 0.126223325729370117 0.0160588249564170837
-0.114412941038608551 0.132286697626113892 0.0160588249564170837
-0.154657036066055298 0.143290579319000244 0.0160588249564170837
-0.110492885112762451 0.151576295495033264 0.0160588249564170837
-0.119445919990539551 0.154768764972686768 0.0160588249564170837
-0.115135297179222107 0.165978759527206421 0.0160588249564170837
-0.140506759285926819 0.179311558604240417 0.0160588249564170837
-0.146246299147605896 0.182676255702972412 0.0160588249564170837
-0.176966562867164612 0.186491876840591431 0.0160588249564170837
-0.153399541974067688 0.187020644545555115 0.0160588249564170837
-0.0707260370254516602 0.28358924388885498 0.0161075219511985779
-0.126244217157363892 -0.0751188695430755615 0.0161455236375331879
0.137635841965675354 -0.168438926339149475 0.0162088815122842789
0.081332281231880188 -0.273790538311004639 0.0163563881069421768
0.181377381086349487 0.285909533500671387 0.016438094899058342
-0.133670762181282043 -0.0736032277345657349 0.0165484640747308731
0.138983100652694702 -0.108013004064559937 0.0165943633764982224
-0.191035106778144836 0.216891840100288391 0.01660187728703022
-0.01159642543643713 -0.275103151798248291 0.0166097003966569901
-0.0234472323209047318 0.28043210506439209 0.0168898962438106537
-0.160886377096176147 -0.0425820723176002502 0.017197929322719574
-0.130203455686569214 -0.0828094184398651123 0.0173527523875236511
-0.0961764752864837646 -0.16710035502910614 0.0175252333283424377
-0.173444360494613647 -0.0636219605803489685 0.017542107030749321
0.145024672150611877 0.230702593922615051 0.0178081449121236801
-0.0630156844854354858 -0.269800424575805664 0.0181005485355854034
0.168991819024085999 0.234568372368812561 0.01827988401055336
0.144863396883010864 -0.0510869473218917847 0.0183200351893901825
0.110737890005111694 0.282459378242492676 0.0185564197599887848
-0.11656806617975235 -0.163428708910942078 0.0185933597385883331
0.0780840367078781128 -0.28182065486907959 0.0186274796724319458
0.21988968551158905 0.288212954998016357 0.0191480722278356552
-0.016818435862660408 0.306231260299682617 0.0192294586449861526
-0.229855760931968689 0.103637121617794037 0.019254760816693306
0.06204180046916008 0.283432424068450928 0.0194234773516654968
-0.147248581051826477 0.289686799049377441 0.0196141060441732407
-0.229354158043861389 0.131245821714401245 0.0197020173072814941
0.146680772304534912 -0.029860321432352066 0.0197782795876264572
0.144945010542869568 -0.279911458492279053 0.0198643989861011505
-0.191979736089706421 0.226647555828094482 0.0199689026921987534
0.00697611086070537567 -0.308902561664581299 0.0199759751558303833
0.211356878280639648 0.288305282592773438 0.0204452238976955414
-0.0898397862911224365 -0.246658965945243835 0.02053043432533741
0.167187601327896118 0.0346364937722682953 0.0209747236222028732
-0.175515308976173401 0.246542021632194519 0.0212492737919092178
0.16676744818687439 0.0128188570961356163 0.0214236807078123093
0.165371567010879517 0.306469976902008057 0.0215294025838375092
0.149367570877075195 0.0811781883239746094 0.0219777338206768036
0.166369840502738953 -0.0784298181533813477 0.022446807473897934
0.166297584772109985 -0.101680032908916473 0.0225741416215896606
0.149600356817245483 -0.183273449540138245 0.0229782722890377045
-0.24593430757522583 0.0829282850027084351 0.0230491273105144501
-0.0351609364151954651 -0.286954402923583984 0.0231871437281370163
-0.164294302463531494 -0.0547005794942378998 0.0232462361454963684
0.165390774607658386 0.124575391411781311 0.0232790056616067886
0.210648089647293091 0.303957223892211914 0.0237654689699411392
-0.092927590012550354 0.306898534297943115 0.0237876046448945999
0.165033653378486633 0.13108392059803009 0.0238541979342699051
0.16503395140171051 0.0525617748498916626 0.0239202417433261871
0.164928779006004333 0.145411774516105652 0.0239603091031312943
-0.229377791285514832 0.151167213916778564 0.0239613000303506851
0.164866283535957336 0.107973933219909668 0.0242004115134477615
0.214097499847412109 -0.300282776355743408 0.0243114475160837173
0.204599156975746155 0.290085911750793457 0.0244703348726034164
0.0829029455780982971 -0.308902561664581299 0.0250359624624252319
0.164502352476119995 -0.104424923658370972 0.0252473261207342148
0.163945242762565613 0.0713035240769386292 0.0252794194966554642
0.201023459434509277 0.305564463138580322 0.0253065209835767746
-0.0312189534306526184 0.286891579627990723 0.0256256610155105591
0.0139860250055789948 -0.288543462753295898 0.0257851574569940567
0.012980632483959198 -0.289053022861480713 0.0266634467989206314
-0.0707281008362770081 -0.274148166179656982 0.0266821775585412979
-0.234019264578819275 0.131321251392364502 0.027335556223988533
0.117162354290485382 0.306977450847625732 0.0273767784237861633
0.162569522857666016 -0.210082441568374634 0.0274088196456432343
0.00811612978577613831 -0.289411723613739014 0.027797263115644455
0.162166357040405273 -0.155528753995895386 0.0280451606959104538
-0.0233514420688152313 0.305977463722229004 0.0280556250363588333
0.102937348186969757 0.287501335144042969 0.0281375013291835785
0.149577945470809937 -0.201774582266807556 0.0281813740730285645
0.149482563138008118 -0.107349149882793427 0.0283203721046447754
0.161134660243988037 -0.255286812782287598 0.0286736749112606049
-0.0720659792423248291 -0.294693827629089355 0.0290838517248630524
-0.157233759760856628 -0.0819384381175041199 0.0293430369347333908
0.148746371269226074 -0.137585684657096863 0.0293958056718111038
0.148722678422927856 0.0142732700332999229 0.0294301807880401611
0.161166712641716003 -0.0651690661907196045 0.0295499041676521301
0.0728902444243431091 0.287488341331481934 0.0296636074781417847
-0.220774099230766296 0.208199724555015564 0.0296962074935436249
-0.194312065839767456 0.247064366936683655 0.0297086630016565323
-0.0843665450811386108 -0.232674166560173035 0.0298385936766862869
-0.194056004285812378 -0.0247620344161987305 0.0299861431121826172
-0.235494151711463928 0.0967103242874145508 0.0300725176930427551
-0.208047643303871155 0.209292709827423096 0.0300973020493984222
0.160822436213493347 -0.110613711178302765 0.0301196761429309845
-0.109354257583618164 -0.185861021280288696 0.0301219001412391663
-0.229908168315887451 0.0190330687910318375 0.0303784832358360291
0.161038979887962341 -0.185297101736068726 0.0305814538151025772
0.160789057612419128 0.188889086246490479 0.0305941738188266754
0.160407811403274536 0.269901871681213379 0.0306446477770805359
0.159817397594451904 -0.265669882297515869 0.0306482575833797455
-0.233406215906143188 0.138689890503883362 0.0308189839124679565
0.160236790776252747 0.046305973082780838 0.0308758951723575592
-0.177753135561943054 -0.0445972643792629242 0.0312351025640964508
0.16938839852809906 -0.308750331401824951 0.0316617377102375031
0.147163376212120056 -0.0413571596145629883 0.0317381694912910461
-0.115721374750137329 -0.166064560413360596 0.0317430384457111359
0.159075900912284851 -0.269521057605743408 0.0317594222724437714
-0.23391491174697876 0.177222490310668945 0.0318819992244243622
-0.114842399954795837 -0.168800652027130127 0.0319306030869483948
0.146975189447402954 0.045383889228105545 0.0320195853710174561
0.123754784464836121 0.306978106498718262 0.0320625267922878265
-0.168191134929656982 -0.0691477954387664795 0.0325061008334159851
-0.117914088070392609 -0.129455611109733582 0.0327123776078224182
-0.231290891766548157 0.149809330701828003 0.0327485203742980957
-0.110638894140720367 -0.181915581226348877 0.0330944135785102844
-0.218537524342536926 0.189015746116638184 0.0331148654222488403
0.146101757884025574 0.0176646150648593903 0.0333271846175193787
-0.0960462093353271484 -0.194492548704147339 0.0337262526154518127
0.145820647478103638 0.208316773176193237 0.033748142421245575
0.17280249297618866 -0.290471971035003662 0.0338271372020244598
0.157263413071632385 -0.265497565269470215 0.03447699174284935
0.176297649741172791 -0.302520632743835449 0.0345547348260879517
0.145154133439064026 0.136019200086593628 0.0347504615783691406
-0.209915146231651306 0.207346871495246887 0.0347787290811538696
-0.120113387703895569 -0.124840885400772095 0.0348794125020503998
0.157560229301452637 0.196637853980064392 0.0349276810884475708
0.144740432500839233 -0.102331116795539856 0.0353730879724025726
-0.246077448129653931 0.121018022298812866 0.0354286879301071167
0.156606242060661316 -0.263120055198669434 0.03562154620885849
0.157090023159980774 0.0146634858101606369 0.0359294749796390533
0.14423719048500061 0.220237523317337036 0.0361321941018104553
-0.125274911522865295 -0.113869301974773407 0.0362928286194801331
0.151418894529342651 0.306852281093597412 0.0363124646246433258
0.157118812203407288 -0.192176297307014465 0.0363469682633876801
0.170138150453567505 0.292987823486328125 0.0364054776728153229
-0.239656925201416016 0.046812448650598526 0.036560647189617157
-0.229067161679267883 0.0167681239545345306 0.0367208532989025116
0.143769487738609314 -0.0529877021908760071 0.0368372462689876556
0.156601369380950928 -0.136415436863899231 0.0368741601705551147
-0.153278693556785583 0.284850656986236572 0.0369776934385299683
0.143083631992340088 -0.113304704427719116 0.0378709062933921814
0.1558542400598526 0.156659781932830811 0.0379085727035999298
0.0454755239188671112 0.305978477001190186 0.0384992174804210663
-0.0759810134768486023 -0.260242462158203125 0.0386990532279014587
-0.127249076962471008 -0.109423719346523285 0.038719862699508667
-0.181522876024246216 -0.0547542162239551544 0.0387211665511131287
0.13162153959274292 -0.287741780281066895 0.0388243831694126129
0.154865667223930359 -0.0917707532644271851 0.0388348847627639771
-0.131250232458114624 -0.123904071748256683 0.0399735942482948303
-0.115519553422927856 -0.13556969165802002 0.0404344052076339722
-0.190288349986076355 0.236933067440986633 0.0405551381409168243
-0.222203582525253296 0.205658361315727234 0.0406800359487533569
-0.0456226132810115814 0.292476415634155273 0.0411636941134929657
0.140425786375999451 -0.149002701044082642 0.0418632030487060547
0.140325635671615601 -0.0819365829229354858 0.0420134775340557098
0.140242695808410645 -0.114243842661380768 0.0421381555497646332
-0.0926298275589942932 0.296815276145935059 0.0421814844012260437
0.153023123741149902 -0.112706176936626434 0.042193092405796051
-0.113456882536411285 -0.141104593873023987 0.0422642640769481659
0.139998108148574829 0.0986646786332130432 0.0425051413476467133
0.139961361885070801 -0.03183746337890625 0.0425603017210960388
0.1528787761926651 -0.120056271553039551 0.0425644330680370331
0.119611412286758423 -0.289223551750183105 0.0425970777869224548
-0.199181869626045227 -0.0346116796135902405 0.0427127592265605927
0.151606574654579163 0.168795868754386902 0.0432529859244823456
-0.246373489499092102 0.0967279523611068726 0.0435876362025737762
-0.021497432142496109 -0.308902561664581299 0.0436454117298126221
0.151528701186180115 0.0821531936526298523 0.0439855754375457764
-0.168678402900695801 -0.0686356425285339355 0.044123385101556778
0.151187896728515625 0.24171486496925354 0.0441450513899326324
0.138944879174232483 0.27572256326675415 0.0441827699542045593
0.158309414982795715 -0.304417431354522705 0.0443503819406032562
-0.154775753617286682 0.283517360687255859 0.0444481968879699707
-0.193894296884536743 0.247524812817573547 0.0445212870836257935
0.138603165745735168 0.0319274365901947021 0.0446004122495651245
-0.22439853847026825 0.0329434908926486969 0.0447224639356136322
-0.169737845659255981 0.272383809089660645 0.0450791977345943451
0.088005363941192627 0.287451446056365967 0.0451580025255680084
0.13802453875541687 -0.20939183235168457 0.0454701445996761322
0.0238401368260383606 0.306027710437774658 0.0456008054316043854
0.150110647082328796 -0.232330232858657837 0.0460071377456188202
-0.190869942307472229 -0.0440988950431346893 0.046213492751121521
-0.207404330372810364 0.211108088493347168 0.046679571270942688
0.0141606060788035393 -0.308902561664581299 0.0466821677982807159
0.149200975894927979 0.175787791609764099 0.0467300042510032654
-0.138814836740493774 0.29519885778427124 0.0467996858060359955
0.137075081467628479 -0.0308418087661266327 0.0468957945704460144
-0.051043827086687088 -0.307834148406982422 0.0471324846148490906
0.13690592348575592 0.0682713910937309265 0.0471495278179645538
0.136796072125434875 -0.223211869597434998 0.0473142862319946289
0.136589720845222473 0.270891845226287842 0.0476238615810871124
0.148455590009689331 0.108142666518688202 0.0481992475688457489
0.148207426071166992 -0.175060495734214783 0.0483339503407478333
-0.122661106288433075 -0.145087957382202148 0.0484645366668701172
-0.166082784533500671 -0.0713951289653778076 0.0487820878624916077
0.135666221380233765 -0.161005780100822449 0.0490097552537918091
0.135502651333808899 0.141591534018516541 0.0492542646825313568
-0.224568769335746765 0.00562395807355642319 0.0494272708892822266
0.13529948890209198 0.21761399507522583 0.0495588742196559906
-0.107674300670623779 -0.158248946070671082 0.0495667532086372375
0.135293051600456238 -0.09550456702709198 0.0495685748755931854
0.14828944206237793 -0.0630480870604515076 0.0496116764843463898
0.147534489631652832 0.0338599421083927155 0.0498027317225933075
0.135006159543991089 0.078300870954990387 0.0499989427626132965
-0.209149301052093506 -0.0206040851771831512 0.0501578226685523987
-0.214798808097839355 -0.0111366258934140205 0.0502690225839614868
0.134815335273742676 -0.0476857461035251617 0.050285734236240387
0.122619934380054474 -0.308902561664581299 0.0503126494586467743
0.147734597325325012 -0.0635739639401435852 0.0503870025277137756
0.147666215896606445 -0.0689865350723266602 0.0504772849380970001
-0.101799033582210541 -0.2093668133020401 0.0505655631422996521
0.14646632969379425 0.166953131556510925 0.0507029369473457336
0.146493986248970032 -0.228108629584312439 0.0507395565509796143
-0.207395955920219421 0.210968568921089172 0.0509373471140861511
-0.0705694779753684998 -0.275911629199981689 0.0511988401412963867
-0.0895614922046661377 0.296866714954376221 0.0521714761853218079
-0.0910486802458763123 -0.210016340017318726 0.0522083304822444916
-0.100543119013309479 -0.213278204202651978 0.0526162385940551758
0.133103117346763611 -0.0629131942987442017 0.0528532005846500397
0.133079320192337036 0.12488488107919693 0.0528887175023555756
0.150938898324966431 -0.304858207702636719 0.0530180707573890686
0.132830247282981873 0.195225700736045837 0.0532624423503875732
-0.058795589953660965 -0.305348813533782959 0.0532983653247356415
0.145060837268829346 0.21770121157169342 0.0538276508450508118
0.132290735840797424 -0.0990789085626602173 0.0540712401270866394
-0.147433936595916748 0.289545118808746338 0.0542556308209896088
0.132123425602912903 -0.0671841800212860107 0.0543225482106208801
0.13209812343120575 -0.185906141996383667 0.0543604977428913116
0.0350176319479942322 -0.289377570152282715 0.0545002147555351257
-0.236213371157646179 0.108985424041748047 0.0547791197896003723
-0.227004840970039368 0.0112220803275704384 0.0548522509634494781
0.131767123937606812 0.142739266157150269 0.0548576898872852325
0.131581395864486694 -0.196229010820388794 0.0551376119256019592
-0.185950085520744324 -0.0344579257071018219 0.0552310235798358917
0.131490051746368408 -0.137978985905647278 0.0552752688527107239
0.131471037864685059 0.0700640380382537842 0.0553039386868476868
-0.177534312009811401 -0.0440710335969924927 0.055491764098405838
0.144084647297859192 0.211771130561828613 0.055524580180644989
0.130717843770980835 0.175306051969528198 0.0564390867948532104
0.130604639649391174 -0.193158939480781555 0.0566096976399421692
0.143127381801605225 -0.0756904855370521545 0.0566463097929954529
-0.114012055099010468 -0.139580070972442627 0.056781470775604248
-0.132287576794624329 -0.10040891170501709 0.0568064786493778229
-0.12089160829782486 0.292399466037750244 0.0568284690380096436
-0.0959725156426429749 -0.227536484599113464 0.0570810623466968536
0.0194687191396951675 -0.289380013942718506 0.0572485625743865967
0.130147293210029602 -0.10294632613658905 0.057298656553030014
0.130087986588478088 0.178938418626785278 0.0573883466422557831
0.142618477344512939 -0.141877621412277222 0.0574261508882045746
-0.246373802423477173 0.0941421017050743103 0.0575401894748210907
-0.00813541002571582794 0.287451446056365967 0.0576015114784240723
-0.178585991263389587 -0.0580486655235290527 0.0579617135226726532
-0.228239491581916809 0.0145410671830177307 0.0582887306809425354
-0.21849137544631958 0.189155742526054382 0.0584395676851272583
-0.217427581548690796 0.0144448932260274887 0.0587950795888900757
0.145837724208831787 -0.28761059045791626 0.0588169023394584656
0.141869902610778809 0.208057641983032227 0.0588426999747753143
-0.0193458534777164459 0.287451446056365967 0.0591027215123176575
-0.136160150170326233 0.285048544406890869 0.0593604110181331635
-0.0540232770144939423 -0.293432414531707764 0.0594263002276420593
0.0137129565700888634 -0.289380490779876709 0.0594386979937553406
0.128585919737815857 -0.194730848073959351 0.0596572384238243103
0.128287792205810547 -0.151865199208259583 0.0601096451282501221
-0.202589482069015503 0.218571081757545471 0.0601416677236557007
-0.0454087182879447937 0.306891322135925293 0.0603233352303504944
-0.0695664137601852417 -0.278316259384155273 0.060338292270898819
0.128077611327171326 0.0796830952167510986 0.060428917407989502
-0.0951958075165748596 -0.197123154997825623 0.0604369118809700012
0.127990767359733582 -0.0686753988265991211 0.0605605095624923706
0.0529893077909946442 -0.308902561664581299 0.0607308521866798401
0.140123918652534485 0.221943855285644531 0.0607815645635128021
0.140512734651565552 0.201516643166542053 0.0608439184725284576
0.127773255109786987 0.242701470851898193 0.0608965791761875153
0.0385245643556118011 -0.289383292198181152 0.060934893786907196
-0.095176398754119873 0.306854963302612305 0.0610604993999004364
-0.136455714702606201 -0.1135687455534935 0.0611327514052391052
0.139945447444915771 0.238254159688949585 0.061171751469373703
0.143633589148521423 0.283662855625152588 0.0612215995788574219
0.127432331442832947 0.274297177791595459 0.0614275969564914703
-0.00800862908363342285 0.306565403938293457 0.0622420497238636017
0.125040978193283081 0.281594991683959961 0.0623307377099990845
-0.140971720218658447 0.281794905662536621 0.0623335652053356171
-0.0104826297610998154 0.287451446056365967 0.0625106245279312134
0.139373689889907837 0.177129477262496948 0.0625288113951683044
0.126589149236679077 -0.0570404604077339172 0.0626886114478111267
-0.0830177441239356995 -0.235070750117301941 0.0627469867467880249
0.138867244124412537 0.196910068392753601 0.0630142167210578918
-0.232217773795127869 0.145244747400283813 0.0631640106439590454
-0.150318339467048645 0.287284195423126221 0.063318200409412384
-0.179684802889823914 0.263120532035827637 0.0634289756417274475
0.11537635326385498 0.287399053573608398 0.0636620298027992249
-0.211475297808647156 -0.0166900493204593658 0.0637915655970573425
0.0107216034084558487 -0.308899760246276855 0.0639588013291358948
0.0197504479438066483 0.30664360523223877 0.0641729235649108887
-0.143777534365653992 0.292163252830505371 0.0643591880798339844
-0.0295897480100393295 -0.308885633945465088 0.0643677562475204468
-0.0942997708916664124 -0.200138643383979797 0.0644374340772628784
0.14574006199836731 0.291538357734680176 0.0645357444882392883
-0.0781995505094528198 -0.282289862632751465 0.0646561682224273682
0.138348713517189026 0.255547583103179932 0.0647308900952339172
0.137962579727172852 0.135550886392593384 0.065623156726360321
0.0440819412469863892 0.28748929500579834 0.0658062994480133057
-0.112069830298423767 -0.145238324999809265 0.065885297954082489
0.0667747557163238525 -0.288484394550323486 0.0661604851484298706
-0.161627933382987976 0.278127431869506836 0.066333383321762085
-0.221709206700325012 0.206320121884346008 0.0664072111248970032
-0.155521824955940247 -0.0834589600563049316 0.066535264253616333
0.124889649450778961 -0.0939825400710105896 0.0667452141642570496
-0.245908454060554504 0.122074313461780548 0.0668336227536201477
0.124816544353961945 0.0460413917899131775 0.0669366344809532166
-0.0627694055438041687 0.306790947914123535 0.0670978575944900513
0.137753948569297791 0.217017725110054016 0.0672396793961524963
-0.06910686194896698 0.306785523891448975 0.0672650113701820374
0.124640077352523804 -0.0074823964387178421 0.0673979967832565308
0.0332557223737239838 -0.288195550441741943 0.0677371099591255188
0.0978622362017631531 0.306978464126586914 0.06789446622133255
-0.0953296050429344177 -0.229108363389968872 0.0683659836649894714
0.124144315719604492 -0.243535041809082031 0.0686345100402832031
0.137411698698997498 0.116075187921524048 0.0688149780035018921
-0.216594934463500977 -0.005677057895809412 0.0689371824264526367
0.12364477664232254 0.1583356112241745 0.0692710652947425842
-0.234988197684288025 0.0739324837923049927 0.069285862147808075
-0.0337770767509937286 -0.30856621265411377 0.0694316476583480835
0.123372778296470642 0.193001925945281982 0.0696160197257995605
0.123717151582241058 0.24205036461353302 0.0696175023913383484
0.0182693339884281158 -0.287249982357025146 0.0699743703007698059
-0.19960002601146698 -0.0333669222891330719 0.0700556710362434387
-0.194141343235969543 0.232344180345535278 0.0700759589672088623
-0.227264046669006348 0.0384556613862514496 0.0703093931078910828
0.138079941272735596 0.0656551271677017212 0.0705232471227645874
-0.245315760374069214 0.101594112813472748 0.070569939911365509
0.122237950563430786 -0.232625842094421387 0.0710600763559341431
0.122174307703971863 -0.0608686208724975586 0.0711411163210868835
-0.173847094178199768 -0.0609161071479320526 0.0711861699819564819
-0.232865333557128906 0.030598105862736702 0.0711885765194892883
0.1384173184633255 -0.00490571744740009308 0.0713361948728561401
-0.206149458885192871 0.214030683040618896 0.0713911131024360657
0.121968336403369904 -0.265815854072570801 0.071403108537197113
0.121913231909275055 0.142732903361320496 0.0714732110500335693
0.121666125953197479 0.0245126932859420776 0.0717881470918655396
-0.0184129215776920319 0.306864798069000244 0.0719371140003204346
0.06627625972032547 0.285572826862335205 0.07200661301612854
-0.0431550145149230957 0.290114343166351318 0.0723212510347366333
-0.105283088982105255 -0.171991363167762756 0.0723292082548141479
-0.119060777127742767 -0.14865875244140625 0.0723787546157836914
-0.0100192483514547348 0.30704265832901001 0.0724219530820846558
-0.196959584951400757 0.242805793881416321 0.0724427253007888794
-0.117302142083644867 -0.137070342898368835 0.0724590122699737549
-0.0763701349496841431 -0.28214496374130249 0.0724666044116020203
-0.131248518824577332 -0.119747400283813477 0.0724951401352882385
0.120968110859394073 -0.223060101270675659 0.0726545602083206177
-0.0963295698165893555 0.307075619697570801 0.0726560503244400024
-0.170714303851127625 -0.0620738118886947632 0.0727123692631721497
-0.1451234370470047 -0.0931554064154624939 0.0729609578847885132
-0.0715973600745201111 0.29515606164932251 0.0730669349431991577
0.10466478019952774 0.284538447856903076 0.0730790421366691589
-0.116463176906108856 -0.15419471263885498 0.0731058493256568909
0.139318227767944336 -0.0878387689590454102 0.0731720924377441406
-0.193349123001098633 -0.0298386216163635254 0.0733085423707962036
-0.104427926242351532 -0.186368420720100403 0.0734788253903388977
-0.0770416855812072754 -0.271838605403900146 0.0735433027148246765
0.139521434903144836 -0.131030037999153137 0.0735642984509468079
-0.0839939489960670471 -0.248477444052696228 0.0736639276146888733
-0.0748521238565444946 -0.281456053256988525 0.0736886858940124512
-0.196986451745033264 -0.0319053679704666138 0.0737317204475402832
-0.12059774249792099 -0.143017768859863281 0.0737462937831878662
-0.237995073199272156 0.0711860880255699158 0.0738964155316352844
-0.239382833242416382 0.0942719131708145142 0.0741122066974639893
-0.238091990351676941 0.0592302419245243073 0.0741389095783233643
-0.112896785140037537 0.292808771133422852 0.0745632573962211609
-0.0991088002920150757 0.307222366333007812 0.074776381254196167
0.117093779146671295 -0.191954329609870911 0.0748439431190490723
-0.0344380401074886322 -0.298935055732727051 0.0749815180897712708
0.061676371842622757 0.279857099056243896 0.0751902684569358826
0.11533355712890625 0.0372035019099712372 0.0752069726586341858
0.11467452347278595 -0.249992534518241882 0.0752388536930084229
0.13259577751159668 0.306924819946289062 0.0752496197819709778
0.113088652491569519 0.014837031252682209 0.0753157734870910645
0.113027490675449371 0.114099636673927307 0.0753191113471984863
0.111984483897686005 -0.0890779569745063782 0.0753694698214530945
0.0733793154358863831 -0.248898178339004517 0.0754745230078697205
0.0938284173607826233 -0.24461422860622406 0.0754745230078697205
0.0467288382351398468 -0.236465081572532654 0.0754745230078697205
0.10266093909740448 -0.231866359710693359 0.0754745230078697205
0.0453872866928577423 -0.227180853486061096 0.0754745230078697205
0.0368627645075321198 -0.217809528112411499 0.0754745230078697205
0.0545993000268936157 -0.202694669365882874 0.0754745230078697205
0.0981458276510238647 -0.196783825755119324 0.0754745230078697205
0.0494806282222270966 -0.190614700317382812 0.0754745230078697205
0.0837257131934165955 -0.189866900444030762 0.0754745230078697205
0.059882480651140213 -0.169616356492042542 0.0754745230078697205
0.0547751486301422119 -0.166193962097167969 0.0754745230078697205
0.0507324114441871643 -0.165984585881233215 0.0754745230078697205
0.0821741670370101929 -0.150064319372177124 0.0754745230078697205
0.06755780428647995 -0.144616603851318359 0.0754745230078697205
0.0846062526106834412 -0.126366928219795227 0.0754745230078697205
0.0563582368195056915 -0.0953086838126182556 0.0754745230078697205
0.0823931470513343811 -0.0488957986235618591 0.0754745230078697205
0.0696509554982185364 -0.0275637265294790268 0.0754745230078697205
0.0689708516001701355 -0.000736021785996854305 0.0754745230078697205
0.0852707847952842712 0.0033601825125515461 0.0754745230078697205
0.0480297654867172241 0.0455340631306171417 0.0754745230078697205
0.0764801129698753357 0.0510612167418003082 0.0754745230078697205
0.0469297021627426147 0.0616984926164150238 0.0754745230078697205
0.0589067377150058746 0.0852747932076454163 0.0754745230078697205
0.0536584444344043732 0.107471846044063568 0.0754745230078697205
0.0497381053864955902 0.110080935060977936 0.0754745230078697205
0.102444857358932495 0.125909313559532166 0.0754745230078697205
0.0669695585966110229 0.126105546951293945 0.0754745230078697205
0.0786004588007926941 0.129879102110862732 0.0754745230078697205
0.0934040248394012451 0.134022891521453857 0.0754745230078697205
0.0707431808114051819 0.138180404901504517 0.0754745230078697205
0.0551043041050434113 0.1383066326379776 0.0754745230078697205
0.0707741826772689819 0.158635467290878296 0.0754745230078697205
0.041654244065284729 0.164924055337905884 0.0754745230078697205
0.0725319460034370422 0.181374698877334595 0.0754745230078697205
0.0420618392527103424 0.186745986342430115 0.0754745230078697205
0.0970885008573532104 0.201107725501060486 0.0754745230078697205
0.0859633609652519226 0.225847169756889343 0.0754745230078697205
0.0996615514159202576 0.237081572413444519 0.0754745230078697205
0.074042104184627533 0.240561887621879578 0.0754745230078697205
0.084171779453754425 0.250109195709228516 0.0754745230078697205
0.0343366339802742004 -0.192522302269935608 0.0754745304584503174
0.103551924228668213 0.244481533765792847 0.0754745379090309143
0.0327251739799976349 -0.170841112732887268 0.0754745528101921082
0.029102768748998642 -0.0348578691482543945 0.0754746124148368835
0.105794064700603485 -0.199865043163299561 0.0754748135805130005
0.106231294572353363 0.184102937579154968 0.075474858283996582
0.10837429016828537 0.0227472726255655289 0.0754750743508338928
0.108427673578262329 -0.242834925651550293 0.0754750818014144897
0.108439862728118896 0.0645478963851928711 0.0754750818014144897
0.0254795234650373459 0.106066949665546417 0.0755087211728096008
0.0251638330519199371 0.269153118133544922 0.0755135342478752136
0.0474094264209270477 -0.277507185935974121 0.0755148157477378845
0.0248878300189971924 0.193481504917144775 0.0755170136690139771
0.0241011567413806915 0.109948471188545227 0.0755280479788780212
0.0238963086158037186 -0.190301015973091125 0.0755309239029884338
0.0237821526825428009 -0.212641268968582153 0.0755325257778167725
0.140597239136695862 0.143554657697677612 0.0756407156586647034
0.0223498903214931488 -0.171906501054763794 0.0756602957844734192
-0.0225764811038970947 -0.294744133949279785 0.075732007622718811
-0.0278213769197463989 -0.275398671627044678 0.0757957994937896729
0.0219115652143955231 -0.0191070567816495895 0.0759328082203865051
0.0212646927684545517 0.258096575736999512 0.0763303786516189575
