ply
format ascii 1.0
element vertex 701
property float x
property float y
property float z
end_header
0.0193978846073150635 -0.201173663139343262 -0.0270032212138175964
0.00922422576695680618 0.151754841208457947 -0.0269554518163204193
0.0677287131547927856 -0.00434142490848898888 -0.0269168075174093246
0.0954574048519134521 -0.128329247236251831 -0.0269026774913072586
0.037869967520236969 -0.416082441806793213 -0.0268812142312526703
0.0770120173692703247 0.0697612464427947998 -0.0268808361142873764
0.113615706562995911 -0.231292307376861572 -0.0268521662801504135
0.113080762326717377 -0.290515810251235962 -0.0268089212477207184
0.0242835376411676407 0.144044697284698486 -0.0267948973923921585
0.113466769456863403 -0.0582122281193733215 -0.02675587497651577
0.0709722340106964111 0.15154285728931427 -0.0266938786953687668
-0.00322582968510687351 0.0470305308699607849 -0.026653708890080452
-0.127904534339904785 -0.284943759441375732 -0.0266349129378795624
0.0227224975824356079 0.373829394578933716 -0.0265680998563766479
0.0327447652816772461 -0.178326457738876343 -0.0265645775943994522
-0.00488804653286933899 0.420334130525588989 -0.0264498889446258545
0.0994277149438858032 -0.144393876194953918 -0.0264104995876550674
0.113560520112514496 0.330254912376403809 -0.0264092013239860535
0.102550357580184937 0.0448867939412593842 -0.0263970699161291122
-0.000616261677350848913 -0.0446588136255741119 -0.0263834502547979355
0.0196414012461900711 -0.349455296993255615 -0.0263681728392839432
0.113325037062168121 0.214463487267494202 -0.0263594277203083038
0.051234118640422821 -0.243380084633827209 -0.0263134948909282684
0.104059971868991852 0.069393843412399292 -0.0263113956898450851
0.013891216367483139 -0.0047480408102273941 -0.0263066031038761139
0.0732226148247718811 0.374104529619216919 -0.0262651219964027405
-0.00524960551410913467 -0.0864230766892433167 -0.0262311473488807678
0.0876215472817420959 -0.0697265937924385071 -0.0262209437787532806
0.0810539126396179199 -0.177873268723487854 -0.0261819884181022644
-0.0690328404307365417 0.452253729104995728 -0.026167064905166626
-0.127904534339904785 0.107788115739822388 -0.0261602587997913361
-0.127904534339904785 -0.228852540254592896 -0.0261595491319894791
-0.00498911365866661072 -0.423768520355224609 -0.0261068698018789291
0.0948272868990898132 -0.0200926661491394043 -0.0260980762541294098
-0.127904534339904785 -0.19458305835723877 -0.0260893162339925766
0.0861469358205795288 0.0446238182485103607 -0.0260763373225927353
0.0213600918650627136 -0.275964915752410889 -0.026052543893456459
0.0393831618130207062 0.0443677753210067749 -0.0260444246232509613
0.0176648925989866257 0.399073123931884766 -0.0260407235473394394
0.012129172682762146 -0.430847734212875366 -0.0260150060057640076
-0.000903704843949526548 -0.193876117467880249 -0.0259613003581762314
-0.127904534339904785 -0.276132971048355103 -0.0259493496268987656
0.0810236111283302307 -0.415300309658050537 -0.0259284656494855881
0.11260511726140976 0.0337370447814464569 -0.0259187780320644379
0.0369487777352333069 0.414609670639038086 -0.0259064119309186935
0.00437423074617981911 -0.317443192005157471 -0.0258938595652580261
0.000581557222176343203 -0.178548514842987061 -0.0258781630545854568
0.111372202634811401 -0.40138128399848938 -0.0258556287735700607
0.0145547827705740929 -0.17877727746963501 -0.0258430838584899902
0.0216583851724863052 0.128397583961486816 -0.0258344449102878571
0.0275460835546255112 0.389106154441833496 -0.0258117895573377609
-0.127904534339904785 -0.295275837182998657 -0.0257999598979949951
0.0105090644210577011 -0.0198375526815652847 -0.0257614310830831528
-0.108424708247184753 0.451896995306015015 -0.0256931353360414505
0.0467207282781600952 -0.227081149816513062 -0.0256263315677642822
-0.00452186679467558861 -0.425505518913269043 -0.025603143498301506
0.0318145379424095154 0.167785793542861938 -0.025560036301612854
-0.000270662596449255943 0.143547132611274719 -0.0255171842873096466
-0.127904534339904785 -0.350677311420440674 -0.0254887305200099945
0.0953125804662704468 0.129157587885856628 -0.0254786442965269089
0.0437704920768737793 -0.317005068063735962 -0.0254538673907518387
0.0463466905057430267 -0.118756979703903198 -0.0253621619194746017
-0.127904534339904785 0.139857500791549683 -0.025349767878651619
0.10909610241651535 0.276714116334915161 -0.0252910107374191284
0.0802287310361862183 -0.414878636598587036 -0.0252437535673379898
0.0530311129987239838 -0.292020231485366821 -0.0252308249473571777
0.0744407325983047485 0.0547496043145656586 -0.0252066664397716522
0.106347240507602692 -0.375410079956054688 -0.0251809693872928619
0.0124244894832372665 0.242024749517440796 -0.0251777768135070801
0.0852696970105171204 -0.178770527243614197 -0.02512345090508461
0.106558792293071747 -0.0687241926789283752 -0.025120297446846962
0.0860867947340011597 -0.227265745401382446 -0.0250495132058858871
0.0556250438094139099 -0.0192930717021226883 -0.0250261146575212479
0.071967683732509613 0.0548827312886714935 -0.025004928931593895
-0.00249110744334757328 -0.194099247455596924 -0.02500125952064991
0.0859633833169937134 0.301105797290802002 -0.0249983984977006912
0.0375826768577098846 0.325825661420822144 -0.0249838680028915405
0.0812843963503837585 -0.00584563519805669785 -0.0248518716543912888
0.100092113018035889 0.129780322313308716 -0.0248281937092542648
0.00732909701764583588 0.340129554271697998 -0.0248241443186998367
0.0748691856861114502 0.41313585638999939 -0.0248170644044876099
0.0780510753393173218 -0.11828305572271347 -0.0247843246906995773
0.107955515384674072 -0.277505934238433838 -0.0247657317668199539
0.109224535524845123 0.166895002126693726 -0.0247498452663421631
-0.00462176045402884483 -0.223830252885818481 -0.0247169602662324905
0.0229346659034490585 -0.0554663650691509247 -0.0246871039271354675
0.0526465028524398804 0.375526249408721924 -0.024677591398358345
0.0478170253336429596 -0.192300647497177124 -0.0245234929025173187
-0.127904534339904785 -0.302552998065948486 -0.0245085004717111588
0.0191240906715393066 0.227043792605400085 -0.0244539640843868256
-0.127904534339904785 -0.407076209783554077 -0.0244261585175991058
-0.00663306610658764839 0.0114408731460571289 -0.0244237072765827179
0.0608024336397647858 0.375663101673126221 -0.024420514702796936
0.041301824152469635 0.29058915376663208 -0.0244196020066738129
0.0270948316901922226 0.104673251509666443 -0.0243437774479389191
0.0744844675064086914 0.400443524122238159 -0.0243205446749925613
0.0235026143491268158 0.413594841957092285 -0.0242912229150533676
0.0922701805830001831 0.412616491317749023 -0.024268539622426033
-0.00362188671715557575 -0.128076076507568359 -0.0241895020008087158
-0.00441074278205633163 0.392470031976699829 -0.0241762120276689529
-0.000434887362644076347 -0.375548422336578369 -0.0241063423454761505
0.014742458239197731 0.290463358163833618 -0.0239252746105194092
-0.123112618923187256 -0.452857404947280884 -0.0238326359540224075
0.0651150569319725037 -0.35151982307434082 -0.023825671523809433
0.111108668148517609 -0.18938976526260376 -0.0237660426646471024
0.0804556235671043396 0.301882684230804443 -0.0236381459981203079
0.0925965681672096252 0.0310301445424556732 -0.0236228704452514648
0.110832616686820984 0.214014694094657898 -0.0235585607588291168
0.0848224088549613953 -0.30265045166015625 -0.023553803563117981
0.103862069547176361 -0.228626236319541931 -0.0235468558967113495
0.11078035831451416 -0.362948387861251831 -0.023543480783700943
0.0443709120154380798 0.240623578429222107 -0.0235208533704280853
0.061740528792142868 -0.241211757063865662 -0.0235072001814842224
0.0372345820069313049 0.129941761493682861 -0.0234824251383543015
-0.127904534339904785 0.113079920411109924 -0.0234823655337095261
0.0165596213191747665 0.227626517415046692 -0.0234080404043197632
0.0040020444430410862 -0.216461881995201111 -0.0234034229069948196
0.0954155176877975464 0.117225818336009979 -0.023354649543762207
0.0638503432273864746 -0.278068304061889648 -0.0233187749981880188
0.0850902870297431946 0.290112942457199097 -0.023286113515496254
0.0607905574142932892 -0.290802210569381714 -0.0232727639377117157
-0.127904534339904785 -0.196381226181983948 -0.023260338231921196
-0.127904534339904785 -0.0913011804223060608 -0.0232443027198314667
0.0815248116850852966 0.141892075538635254 -0.0232407823204994202
0.0177467595785856247 0.203306242823600769 -0.0232325531542301178
0.0225133616477251053 -0.0676189884543418884 -0.0232306197285652161
0.111042790114879608 0.33016321063041687 -0.0232236534357070923
0.054972231388092041 0.0427078902721405029 -0.0232214927673339844
0.0377238839864730835 -0.278061628341674805 -0.0232163462787866592
0.10245814174413681 -0.0429239124059677124 -0.0231340453028678894
0.00434129172936081886 0.376358777284622192 -0.0231201034039258957
0.108190208673477173 0.0562276020646095276 -0.0230938587337732315
0.0675521641969680786 0.21598285436630249 -0.023070797324180603
0.052705131471157074 -0.413477450609207153 -0.0230340175330638885
0.0207827072590589523 0.0425036996603012085 -0.0230012759566307068
0.109413005411624908 -0.279724597930908203 -0.0229894146323204041
0.0988856181502342224 -0.141984537243843079 -0.0229057148098945618
0.0921129807829856873 0.302269697189331055 -0.0228850524872541428
0.0602070800960063934 0.0561115704476833344 -0.0228442084044218063
0.0705915391445159912 -0.204651668667793274 -0.0228216443210840225
0.0358133316040039062 0.412506759166717529 -0.0227973442524671555
0.0885189175605773926 -0.401536345481872559 -0.0227753818035125732
0.103280350565910339 -0.18114665150642395 -0.0227563977241516113
0.0252500865608453751 -0.00709411827847361565 -0.022733757272362709
0.0119904624298214912 -0.131153702735900879 -0.0227307956665754318
0.0631232485175132751 0.277687191963195801 -0.0227217823266983032
0.0870141014456748962 -0.352112293243408203 -0.0227203071117401123
-0.00491355918347835541 -0.426908254623413086 -0.0225622951984405518
0.109728038311004639 0.155869066715240479 -0.0224964991211891174
0.0132765676826238632 -0.204915940761566162 -0.0224889758974313736
0.0665100216865539551 -0.215910464525222778 -0.0224389676004648209
0.110274344682693481 -0.387377947568893433 -0.0224284622818231583
0.0293605998158454895 -0.204989925026893616 -0.0223945099860429764
0.082231275737285614 0.105927914381027222 -0.0223804060369729996
-0.127904534339904785 -0.0668450519442558289 -0.022354641929268837
0.101288922131061554 -0.240580081939697266 -0.0223207268863916397
0.0488884039223194122 -0.215844288468360901 -0.0223146434873342514
0.0495971962809562683 0.165964782238006592 -0.0222802162170410156
0.110470987856388092 -0.114573955535888672 -0.0222421735525131226
0.109973877668380737 -0.239745825529098511 -0.0221891961991786957
0.0677450671792030334 0.30264890193939209 -0.0221471358090639114
0.0173670370131731033 -0.131416082382202148 -0.0221368502825498581
0.0548611991107463837 -0.278730839490890503 -0.0221320595592260361
0.105162598192691803 -0.22996799647808075 -0.02201046422123909
0.0300705097615718842 -0.0412453822791576385 -0.021944534033536911
0.0215424224734306335 0.327533572912216187 -0.0219337120652198792
-0.000268279574811458588 0.155510663986206055 -0.0219317898154258728
0.0353898182511329651 0.116037465631961823 -0.0219281110912561417
0.0698848888278007507 -0.363417327404022217 -0.0218490902334451675
0.0756951943039894104 -0.229353874921798706 -0.0218411646783351898
0.107026055455207825 -0.230407863855361938 -0.0218345057219266891
0.0330866724252700806 -0.279151052236557007 -0.0218100547790527344
0.10528063029050827 -0.00752318790182471275 -0.0217979568988084793
-0.0780391842126846313 -0.452897012233734131 -0.0217019915580749512
0.0252707824110984802 0.327671051025390625 -0.0216756202280521393
0.0948242992162704468 -0.412219345569610596 -0.021673521026968956
-0.00453692860901355743 0.41472858190536499 -0.0216554384678602219
0.0473324395716190338 -0.402137726545333862 -0.0216464828699827194
0.105968266725540161 0.156731724739074707 -0.0216374211013317108
0.0344129651784896851 0.313410073518753052 -0.0216349847614765167
0.0312536321580410004 0.401882410049438477 -0.0216175690293312073
0.10997869074344635 0.138528227806091309 -0.0215648319572210312
-0.0930669978260993958 0.452088654041290283 -0.0215646363794803619
0.0587017461657524109 0.278433173894882202 -0.0215038135647773743
0.0362482480704784393 -0.387559771537780762 -0.0214797221124172211
-0.0573908649384975433 0.452530533075332642 -0.021445082500576973
-0.00398395024240016937 0.118845917284488678 -0.0214201640337705612
0.0370309501886367798 -0.304166018962860107 -0.0213638655841350555
0.106601148843765259 0.312768340110778809 -0.0213542506098747253
0.00433168467134237289 0.107076756656169891 -0.0213443152606487274
0.0912468209862709045 0.0663189888000488281 -0.0212924238294363022
0.100297093391418457 -0.362936675548553467 -0.0212815478444099426
0.045041646808385849 -0.00795213785022497177 -0.021219177171587944
0.0271152760833501816 0.0571426898241043091 -0.0211975425481796265
0.109674960374832153 -0.0605025887489318848 -0.0211785472929477692
0.0501971319317817688 0.27891811728477478 -0.0211588591337203979
0.0560186207294464111 -0.353347957134246826 -0.0210875421762466431
0.0488865263760089874 0.229274824261665344 -0.0210545379668474197
-0.00484224921092391014 -0.201212763786315918 -0.0210542734712362289
0.016947474330663681 0.132552027702331543 -0.0209734216332435608
0.0457224100828170776 -0.304834216833114624 -0.0209448132663965225
0.0470710359513759613 0.065825238823890686 -0.0209084544330835342
0.023430943489074707 -0.00851697474718093872 -0.0208971984684467316
0.109031185507774353 0.329345256090164185 -0.020841691642999649
0.0378033444285392761 -0.189838454127311707 -0.0208187233656644821
-0.127904534339904785 -0.0271250233054161072 -0.0208038557320833206
0.00154909084085375071 -0.385967880487442017 -0.0208028592169284821
0.0663423910737037659 -0.280505150556564331 -0.0207811128348112106
0.101393073797225952 -0.0583307929337024689 -0.0207459460943937302
0.0180698391050100327 0.213755607604980469 -0.0206618513911962509
0.0831488966941833496 0.238349020481109619 -0.0206209402531385422
0.0297100599855184555 0.238783687353134155 -0.0206142663955688477
0.0668765008449554443 0.139519974589347839 -0.0206106100231409073
0.0205391254276037216 0.312479496002197266 -0.0205957293510437012
0.0250531993806362152 -0.207004174590110779 -0.020581590011715889
0.100322984158992767 -0.00908121373504400253 -0.0205690823495388031
0.104841418564319611 -0.288675844669342041 -0.0205265525728464127
0.106402292847633362 -0.410201072692871094 -0.0205203201621770859
0.0667228922247886658 0.378496468067169189 -0.0205099936574697495
0.0190743617713451385 -0.108925193548202515 -0.0204899180680513382
0.0730020329356193542 -0.00925156101584434509 -0.0204673167318105698
0.0242986362427473068 -0.00946611072868108749 -0.0204405058175325394
0.0497324131429195404 -0.133192792534828186 -0.0204390883445739746
0.0538125038146972656 0.279932767152786255 -0.0204371009021997452
0.00803991220891475677 0.0590127855539321899 -0.0204243920743465424
0.0791404768824577332 -0.379162013530731201 -0.0204178430140018463
0.00188968237489461899 0.336438894271850586 -0.0203872695565223694
0.0729052126407623291 -0.213975995779037476 -0.0203797854483127594
0.10128166526556015 -0.312740564346313477 -0.0203762594610452652
0.0491713173687458038 -0.281981110572814941 -0.0203145649284124374
0.00716300448402762413 0.039815124124288559 -0.0203088559210300446
0.0518761798739433289 0.378778308629989624 -0.0203055441379547119
0.0963274165987968445 -0.288169801235198975 -0.0202981419861316681
0.0313854031264781952 -0.379363834857940674 -0.0202906783670186996
0.0015684154350310564 0.328512758016586304 -0.0202776528894901276
0.0266113560646772385 -0.379409223794937134 -0.0202620718628168106
-0.127904534339904785 -0.133994311094284058 -0.0202231425791978836
0.0150830801576375961 -0.207811608910560608 -0.0202151741832494736
0.0840179398655891418 0.287205874919891357 -0.0202073659747838974
0.0710044503211975098 -0.409570515155792236 -0.0201599430292844772
0.000804389826953411102 0.286302626132965088 -0.020100567489862442
-0.00890331156551837921 0.437736690044403076 -0.0200949776917695999
0.054369952529668808 0.287045300006866455 -0.0200939998030662537
0.0421215035021305084 0.0392287634313106537 -0.0200931932777166367
-0.0159742049872875214 -0.450176060199737549 -0.0200544353574514389
0.0192505735903978348 0.11375272274017334 -0.0199820678681135178
0.00398383615538477898 -0.355615139007568359 -0.0199737846851348877
0.0433197654783725739 -0.109873048961162567 -0.0199716519564390182
0.0454810298979282379 -0.213428199291229248 -0.0199642665684223175
0.0834018290042877197 -0.356020927429199219 -0.0199535246938467026
0.0113860834389925003 -0.283466488122940063 -0.0199265629053115845
0.0173584390431642532 0.28535008430480957 -0.019925655797123909
0.037098027765750885 -0.30823904275894165 -0.0199226140975952148
0.0722590982913970947 0.113665275275707245 -0.0199214592576026917
0.0126334363594651222 -0.357611536979675293 -0.0199198834598064423
0.0535900555551052094 -0.309709906578063965 -0.0199166834354400635
0.0280269607901573181 -0.358257263898849487 -0.0199053008109331131
0.0396737828850746155 0.0368782319128513336 -0.0198991671204566956
0.0394510626792907715 0.210245147347450256 -0.0198989883065223694
0.0390351414680480957 -0.208511978387832642 -0.0198973454535007477
0.0399966724216938019 0.0386197641491889954 -0.0198862459510564804
0.0814218372106552124 -0.309262067079544067 -0.0198829732835292816
0.00757971964776515961 0.210146769881248474 -0.0198815856128931046
0.027316531166434288 -0.0131865618750452995 -0.0198710057884454727
0.0039392644539475441 -0.404369086027145386 -0.0198519714176654816
0.102727435529232025 0.208298906683921814 -0.0198519062250852585
0.0151605075225234032 -0.0621918216347694397 -0.0198455024510622025
0.107392542064189911 -0.238003075122833252 -0.0198319777846336365
0.0365513376891613007 -0.285281151533126831 -0.0198235362768173218
0.105179354548454285 -0.134547621011734009 -0.0198121443390846252
0.0455896630883216858 -0.284689605236053467 -0.019783318042755127
0.0327290184795856476 -0.184015452861785889 -0.0197806823998689651
0.0256683472543954849 -0.284276574850082397 -0.0197552349418401718
0.0893901735544204712 0.109712116420269012 -0.0197253823280334473
0.105492934584617615 0.0374373719096183777 -0.0197204258292913437
0.0881558507680892944 -0.209774971008300781 -0.0196836050599813461
0.101690798997879028 -0.358256518840789795 -0.019669974222779274
0.0219768732786178589 0.30715826153755188 -0.019664224237203598
-0.127904534339904785 0.0280952323228120804 -0.0196474473923444748
0.098736196756362915 -0.0368679240345954895 -0.0196423586457967758
0.0838515311479568481 -0.0107709076255559921 -0.0196348559111356735
0.0878761932253837585 0.110093206167221069 -0.0196206439286470413
0.0322126187384128571 -0.406745553016662598 -0.0196134354919195175
0.0841559693217277527 -0.137904807925224304 -0.0196073222905397415
0.0766575708985328674 -0.40733066201210022 -0.0196060724556446075
0.0597995147109031677 -0.408085852861404419 -0.0195964965969324112
0.0731625482439994812 0.33076775074005127 -0.0195861905813217163
0.000805893796496093273 -0.23580247163772583 -0.0195793863385915756
0.00145294726826250553 0.234131157398223877 -0.0195790603756904602
-0.0079620014876127243 -0.34181368350982666 -0.0195279642939567566
0.00729523226618766785 -0.236398577690124512 -0.0195079874247312546
-0.00702646467834711075 0.435289353132247925 -0.019484296441078186
0.0702597424387931824 0.38259965181350708 -0.0194718297570943832
-0.0199673641473054886 -0.4517078697681427 -0.0194680597633123398
0.01796722412109375 0.333021342754364014 -0.0194529034197330475
0.0358439236879348755 -0.135256454348564148 -0.0194520037621259689
-0.0592179708182811737 0.452719330787658691 -0.0193099081516265869
-0.0178482029587030411 -0.451246649026870728 -0.0192493554204702377
-0.127902060747146606 0.055640053004026413 -0.0191502645611763
-0.0121809802949428558 -0.437191903591156006 -0.0191150214523077011
-0.071828104555606842 0.452574163675308228 -0.0185423009097576141
-0.00631568767130374908 -0.121588051319122314 -0.0185126867145299911
-0.00510241324082016945 -0.277765274047851562 -0.0181270726025104523
-0.00355033040978014469 -0.183396011590957642 -0.0180779658257961273
-0.127904534339904785 -0.201815932989120483 -0.0180009640753269196
-0.0295850783586502075 -0.451133161783218384 -0.0179398301988840103
-0.0738443881273269653 0.452619731426239014 -0.0178318843245506287
-0.127904534339904785 -0.374540328979492188 -0.0175177901983261108
-0.00657865451648831367 0.0698936209082603455 -0.0169830545783042908
-0.127904534339904785 0.406376540660858154 -0.0164094418287277222
-0.127904534339904785 -0.177479803562164307 -0.0160570424050092697
-0.00799501035362482071 -0.335408240556716919 -0.015987791121006012
-0.00780319981276988983 -0.392396450042724609 -0.0151901207864284515
-0.0633689314126968384 0.452435016632080078 -0.0151264378800988197
-0.00669709639623761177 -0.204124599695205688 -0.0150674376636743546
-0.00701620103791356087 -0.202202364802360535 -0.0148468445986509323
-0.00718261115252971649 -0.103896059095859528 -0.0143904406577348709
-0.0458441376686096191 0.44530758261680603 -0.0142980143427848816
-0.0784844756126403809 0.452426612377166748 -0.0134810525923967361
-0.00799727067351341248 -0.143298670649528503 -0.0134482858702540398
-0.05191001296043396 0.448324680328369141 -0.0133264288306236267
-0.128710508346557617 0.0426707491278648376 -0.0131958853453397751
-0.127904534339904785 0.316146314144134521 -0.0131026403978466988
-0.00820151995867490768 0.32377198338508606 -0.0129513191059231758
-0.00817037932574748993 0.357276052236557007 -0.0129269668832421303
-0.128907471895217896 -0.137717247009277344 -0.012876756489276886
-0.0120663167908787727 0.431895226240158081 -0.0128562916070222855
-0.0240977071225643158 -0.434049874544143677 -0.0128469904884696007
-0.00839903205633163452 -0.171142518520355225 -0.0125376330688595772
-0.110648311674594879 -0.452881872653961182 -0.0124727049842476845
-0.127779126167297363 0.448137640953063965 -0.0124480528756976128
-0.127904534339904785 -0.380414396524429321 -0.0123870763927698135
-0.127904534339904785 -0.404698014259338379 -0.0123667856678366661
-0.00849886052310466766 0.0522636212408542633 -0.0121594425290822983
-0.00840536225587129593 0.0865825116634368896 -0.0120556121692061424
-0.129462450742721558 -0.132571399211883545 -0.0119769144803285599
-0.00823962129652500153 0.391112416982650757 -0.0119471047073602676
-0.0608908534049987793 0.445826917886734009 -0.0119157005101442337
-0.0517778955399990082 -0.0567630082368850708 -0.011873084120452404
-0.061427682638168335 0.0116706704720854759 -0.0118698617443442345
-0.0507708676159381866 -0.0247987471520900726 -0.0118267908692359924
-0.0534462220966815948 0.0646739453077316284 -0.0117276255041360855
-0.0769688114523887634 -0.451464027166366577 -0.0116622764617204666
-0.106467381119728088 -0.452869325876235962 -0.0116178076714277267
-0.0596950538456439972 0.0651311799883842468 -0.0114632202312350273
-0.0468930229544639587 -0.43598639965057373 -0.0113968439400196075
-0.00888797175139188766 0.281640082597732544 -0.0112815499305725098
-0.0674506425857543945 -0.0273515097796916962 -0.0111250914633274078
-0.0779476314783096313 -0.00488962605595588684 -0.0110215162858366966
-0.00971291493624448776 -0.384627163410186768 -0.010939035564661026
-0.0271952804177999496 0.43260037899017334 -0.0109278168529272079
-0.0449924878776073456 0.0113728484138846397 -0.01076520886272192
-0.0732384100556373596 0.00926542095839977264 -0.0107025019824504852
-0.0744042396545410156 -0.0644507184624671936 -0.0106562450528144836
-0.130691170692443848 -0.121566332876682281 -0.0104935625568032265
-0.102603845298290253 -0.452856242656707764 -0.0104775186628103256
-0.0775877609848976135 0.0378770716488361359 -0.0103852860629558563
-0.0701865851879119873 0.439326196908950806 -0.0103633254766464233
-0.130904167890548706 0.148078575730323792 -0.0102973943576216698
-0.130962610244750977 0.0675862431526184082 -0.0102656753733754158
-0.0106741134077310562 -0.330688774585723877 -0.0102588729932904243
-0.0808565244078636169 -0.0612109154462814331 -0.01015477254986763
-0.0101161114871501923 -0.212929815053939819 -0.0100632896646857262
-0.0111795868724584579 -0.367972284555435181 -0.0100252721458673477
-0.127903908491134644 0.424746334552764893 -0.0100246137008070946
-0.127904534339904785 0.226464718580245972 -0.0099689774215221405
-0.0132318688556551933 0.118356905877590179 -0.00994482170790433884
-0.0109961414709687233 -0.192673102021217346 -0.00986300595104694366
-0.0103512518107891083 -0.132550612092018127 -0.00981892459094524384
-0.0160181708633899689 0.121370725333690643 -0.0098185194656252861
-0.0172470826655626297 0.368334472179412842 -0.00979505665600299835
-0.0106615191325545311 0.407321751117706299 -0.00975987687706947327
-0.0127775184810161591 -0.0703326612710952759 -0.00975672900676727295
-0.0132585689425468445 0.137370258569717407 -0.00969154946506023407
-0.0121922297403216362 -0.41105535626411438 -0.0096316412091255188
-0.0125798676162958145 -0.0983587354421615601 -0.00956122390925884247
-0.0126653555780649185 -0.229400351643562317 -0.00954637490212917328
-0.0116152549162507057 0.343603283166885376 -0.00954019557684659958
-0.0196792390197515488 -0.0502785556018352509 -0.00950517691671848297
-0.012735479511320591 -0.151177451014518738 -0.00946009345352649689
-0.0363988690078258514 -0.162337660789489746 -0.00929153431206941605
-0.132150888442993164 0.113348782062530518 -0.00926729757338762283
-0.0372051447629928589 -0.251084744930267334 -0.00926673226058483124
-0.019614100456237793 0.146148964762687683 -0.00926436297595500946
-0.0434325672686100006 -0.252977222204208374 -0.00924900360405445099
-0.016051366925239563 -0.0374856293201446533 -0.00918690580874681473
-0.0411341413855552673 -0.0513378679752349854 -0.00914478674530982971
-0.0145770451053977013 0.210417896509170532 -0.00911899283528327942
-0.127898305654525757 -0.38163524866104126 -0.009080459363758564
-0.0155384056270122528 0.0120096802711486816 -0.00904887169599533081
-0.13241952657699585 -0.142739951610565186 -0.00904105603694915771
-0.0137499310076236725 -0.275688588619232178 -0.0090401284396648407
-0.0184704642742872238 0.305032968521118164 -0.00900007970631122589
-0.132504701614379883 -0.0780890956521034241 -0.00896928366273641586
-0.0154922930523753166 -0.303095877170562744 -0.0089625827968120575
-0.0170413628220558167 0.0534641221165657043 -0.00894453749060630798
-0.0177603773772716522 -0.0828023999929428101 -0.00886877719312906265
-0.0182442590594291687 0.195921927690505981 -0.0088514573872089386
-0.0193897243589162827 0.349603742361068726 -0.00885129626840353012
-0.0264866221696138382 0.0982718318700790405 -0.00883413571864366531
-0.0184410810470581055 0.270670175552368164 -0.008821132592856884
-0.020965922623872757 0.251493453979492188 -0.00874764006584882736
-0.0197836644947528839 0.0298107452690601349 -0.0087389238178730011
-0.0201644618064165115 0.0468371547758579254 -0.00871110241860151291
-0.0898359119892120361 -0.0149884354323148727 -0.00864760298281908035
-0.0257275477051734924 -0.0687917172908782959 -0.00860504154115915298
-0.020971689373254776 -0.196479275822639465 -0.00855709891766309738
-0.0231317989528179169 0.240095257759094238 -0.00849334895610809326
-0.133253633975982666 0.082938849925994873 -0.00844928715378046036
-0.0199927110224962234 -0.269994169473648071 -0.00841555185616016388
-0.0242618340998888016 0.0498476773500442505 -0.00840741954743862152
-0.0202807094901800156 -0.219954013824462891 -0.00838045589625835419
-0.0312128402292728424 0.100249633193016052 -0.00814851932227611542
-0.0232358258217573166 0.39708101749420166 -0.00810724403709173203
-0.0380159169435501099 -0.0459895059466362 -0.00804388988763093948
-0.0479889512062072754 -0.228094413876533508 -0.0080350879579782486
-0.0291429851204156876 -0.0824443772435188293 -0.00803207140415906906
-0.0297242030501365662 0.210545614361763 -0.00800756178796291351
-0.106256388127803802 -0.452032536268234253 -0.00795764941722154617
-0.037192218005657196 -0.0533512718975543976 -0.00795594695955514908
-0.0305366218090057373 0.188333451747894287 -0.00794832129031419754
-0.0295521840453147888 -0.0858021974563598633 -0.00793441012501716614
-0.0909929424524307251 -0.00637473678216338158 -0.00792733579874038696
-0.0310359448194503784 0.120750099420547485 -0.00791190844029188156
-0.0319035127758979797 0.152923032641410828 -0.00784864835441112518
-0.0279058758169412613 -0.131420686841011047 -0.00783654674887657166
-0.0321203507483005524 -0.0796995088458061218 -0.00780278816819190979
-0.127750366926193237 -0.232053831219673157 -0.00779481325298547745
-0.0484358333051204681 -0.0770845562219619751 -0.00774220936000347137
-0.0334579013288021088 0.418012619018554688 -0.00772493146359920502
-0.0353416502475738525 0.104705318808555603 -0.00759793538600206375
-0.039813704788684845 0.315928250551223755 -0.00759379193186759949
-0.0329084396362304688 0.308038771152496338 -0.00758252199739217758
-0.027479102835059166 -0.18022686243057251 -0.00756751652806997299
-0.0364488661289215088 -0.419943928718566895 -0.00755937304347753525
-0.0326091833412647247 -0.406108468770980835 -0.00749378092586994171
-0.0476269423961639404 -0.248781889677047729 -0.00748000666499137878
-0.0477258600294589996 0.429757177829742432 -0.00744311884045600891
-0.0384027101099491119 -0.323423832654953003 -0.00737491622567176819
-0.13537520170211792 -0.000325724948197603226 -0.00736164208501577377
-0.0368250980973243713 -0.107228629291057587 -0.00736024416983127594
-0.0387200377881526947 0.167595982551574707 -0.00735158473253250122
-0.0400061942636966705 0.327552050352096558 -0.00734079349786043167
-0.0436069071292877197 0.318002164363861084 -0.00732980342581868172
-0.0410219132900238037 -0.17323678731918335 -0.007321125827729702
-0.0393001064658164978 -0.293370574712753296 -0.00730256689712405205
-0.135538846254348755 -0.0930111780762672424 -0.00727761164307594299
-0.0921595990657806396 -0.051863405853509903 -0.00725664570927619934
-0.0769752413034439087 0.432834804058074951 -0.00724842958152294159
-0.0409684479236602783 0.200932323932647705 -0.00718763191252946854
-0.12782171368598938 -0.440489292144775391 -0.00707903411239385605
-0.0399928689002990723 0.331992000341415405 -0.00702432543039321899
-0.127677559852600098 0.299133121967315674 -0.00699128769338130951
-0.0321132875978946686 -0.182846426963806152 -0.00697677396237850189
-0.0439502932131290436 0.253442257642745972 -0.00697018764913082123
-0.0447279438376426697 -0.145701020956039429 -0.00696563255041837692
-0.136606603860855103 -0.00784991122782230377 -0.00673009501770138741
-0.136684983968734741 -0.0744096189737319946 -0.00666746357455849648
-0.0495812408626079559 0.147678270936012268 -0.00655979476869106293
-0.053234737366437912 -0.262374758720397949 -0.00650444021448493004
-0.0542421638965606689 0.0810083448886871338 -0.00646699965000152588
-0.0515037775039672852 -0.324467658996582031 -0.0064511946402490139
-0.136820107698440552 0.147196307778358459 -0.00644413009285926819
-0.127857565879821777 -0.384310394525527954 -0.00641991104930639267
-0.0540529973804950714 -0.118926271796226501 -0.00637211231514811516
-0.0551662668585777283 -0.116120226681232452 -0.0063695334829390049
-0.0586907863616943359 0.0967248901724815369 -0.00620211800560355186
-0.0535912215709686279 -0.126077041029930115 -0.00619092537090182304
-0.136143684387207031 0.151158332824707031 -0.00603466806933283806
-0.111190974712371826 0.452437847852706909 -0.00599565682932734489
-0.127689272165298462 -0.44622337818145752 -0.00596049521118402481
-0.0259088166058063507 0.370322048664093018 -0.00590593460947275162
-0.0594648495316505432 -0.295945554971694946 -0.00583898276090621948
-0.0601754114031791687 0.178929984569549561 -0.00580031517893075943
-0.0650892257690429688 0.142386570572853088 -0.00569868320599198341
-0.0990034863352775574 -0.44400787353515625 -0.00567882927134633064
-0.0761292427778244019 0.146491765975952148 -0.00562813971191644669
-0.0671885982155799866 -0.422426402568817139 -0.00548737775534391403
-0.068156607449054718 -0.253597617149353027 -0.00543051445856690407
-0.0278615448623895645 0.294990390539169312 -0.00542702246457338333
-0.0424566715955734253 -0.407836586236953735 -0.00529040209949016571
-0.0698451325297355652 -0.283670574426651001 -0.00525486143305897713
-0.127434194087982178 0.235878348350524902 -0.00521335285156965256
-0.0690767467021942139 0.105445832014083862 -0.00519316596910357475
-0.0739151835441589355 0.225817233324050903 -0.00516460882499814034
-0.0691542774438858032 0.254465311765670776 -0.00515789352357387543
-0.127639263868331909 0.439188927412033081 -0.00514565687626600266
-0.0732633620500564575 0.304410874843597412 -0.00513116037473082542
-0.127787142992019653 -0.335078954696655273 -0.0050534270703792572
-0.0710393562912940979 0.121966704726219177 -0.00499510066583752632
-0.0764174982905387878 -0.200561016798019409 -0.00494619878008961678
-0.0608744174242019653 -0.249850094318389893 -0.00492909364402294159
-0.0796061083674430847 -0.287261694669723511 -0.0049001830630004406
-0.0950983613729476929 -0.0365170389413833618 -0.00486779212951660156
-0.0660163164138793945 -0.143579423427581787 -0.00484334817156195641
-0.127345174551010132 0.333119094371795654 -0.00483517907559871674
-0.0812313184142112732 -0.0792639404535293579 -0.0048314705491065979
-0.0460703596472740173 -0.155032560229301453 -0.00477631669491529465
-0.127499282360076904 0.319803386926651001 -0.00476582162082195282
-0.0749747231602668762 0.218935683369636536 -0.00470849871635437012
-0.0756487101316452026 0.0966944918036460876 -0.0046942378394305706
-0.0498167090117931366 -0.184675306081771851 -0.00463733682408928871
-0.127407848834991455 0.255168348550796509 -0.00462703127413988113
-0.0961539298295974731 -0.434949427843093872 -0.00460130348801612854
-0.0461314953863620758 -0.151500880718231201 -0.00457205064594745636
-0.0948637649416923523 -0.168936237692832947 -0.00452851923182606697
-0.0781688317656517029 0.123695269227027893 -0.00447556702420115471
-0.0962988212704658508 0.0069947466254234314 -0.00441236747428774834
-0.0792113393545150757 -0.267073541879653931 -0.0044052773155272007
-0.0791818797588348389 -0.300074070692062378 -0.00440263282507658005
-0.0471658594906330109 0.409454196691513062 -0.00438534887507557869
-0.0796290561556816101 0.193074509501457214 -0.00437064794823527336
-0.0799034461379051208 0.324312895536422729 -0.00435614213347434998
-0.101547069847583771 -0.43571355938911438 -0.00433717342093586922
-0.0890651419758796692 0.419515490531921387 -0.00431099114939570427
-0.138796061277389526 -0.0183409135788679123 -0.004294542595744133
-0.0965911820530891418 0.00905205495655536652 -0.00428656348958611488
-0.086677253246307373 0.134968310594558716 -0.00428561912849545479
-0.0863604843616485596 0.0893976539373397827 -0.00418561045080423355
-0.0724771469831466675 -0.232264667749404907 -0.00412146328017115593
-0.0618047341704368591 -0.145405739545822144 -0.00409535784274339676
-0.0306074302643537521 0.293794721364974976 -0.00406351126730442047
-0.127244114875793457 -0.249364599585533142 -0.00403422676026821136
-0.0516165494918823242 0.267594873905181885 -0.00393107719719409943
-0.0890159234404563904 -0.190416544675827026 -0.0039309491403400898
-0.126943916082382202 0.296372443437576294 -0.00384422112256288528
-0.0877721458673477173 0.247336536645889282 -0.00377765670418739319
-0.100795567035675049 -0.432052403688430786 -0.00366880092769861221
-0.0580935515463352203 -0.215379521250724792 -0.00365031277760863304
-0.126948565244674683 -0.221792668104171753 -0.00364497862756252289
-0.0890382081270217896 -0.0989039093255996704 -0.00362553028389811516
-0.0580042377114295959 -0.1557721346616745 -0.00359376519918441772
-0.04754638671875 0.337439417839050293 -0.00350910890847444534
-0.0920411646366119385 0.186423927545547485 -0.00346505548804998398
-0.0925214439630508423 0.122037939727306366 -0.00343419238924980164
-0.0921721905469894409 -0.10766911506652832 -0.00339207681827247143
-0.139506787061691284 -0.0993224978446960449 -0.00336480885744094849
-0.107529297471046448 -0.169525384902954102 -0.00336125283502042294
-0.0631184875965118408 -0.176979556679725647 -0.00334585411474108696
-0.0939386561512947083 0.123321585357189178 -0.0033278479240834713
-0.0612084716558456421 -0.152214094996452332 -0.00329920370131731033
-0.114103138446807861 -0.441143304109573364 -0.00327956164255738258
-0.0980482101440429688 0.423375993967056274 -0.00326129165478050709
-0.0955361649394035339 0.0804016739130020142 -0.00321203609928488731
-0.100938931107521057 0.0230309478938579559 -0.00320938113145530224
-0.12708050012588501 -0.400694459676742554 -0.0031991198193281889
-0.0959730222821235657 -0.268135011196136475 -0.00317885028198361397
-0.101390741765499115 0.0165015067905187607 -0.00317821092903614044
-0.0585833899676799774 0.266700416803359985 -0.00316808978095650673
-0.0961483940482139587 0.202962383627891541 -0.00316414982080459595
-0.0884695425629615784 -0.414411574602127075 -0.00314023531973361969
-0.0966867059469223022 -0.294206321239471436 -0.00312499958090484142
-0.0952759981155395508 -0.203219801187515259 -0.00304392445832490921
-0.0707101002335548401 0.414504140615463257 -0.00301777711138129234
-0.0667688027024269104 -0.14937107264995575 -0.00295774568803608418
-0.102771833539009094 0.230205103754997253 -0.00294496840797364712
-0.0753386169672012329 -0.415281713008880615 -0.00293894391506910324
-0.126661986112594604 0.277381211519241333 -0.00292558269575238228
-0.0909750983119010925 -0.33340039849281311 -0.00286639481782913208
-0.067621670663356781 -0.241853609681129456 -0.00284629105590283871
-0.100983813405036926 0.0802052095532417297 -0.00281174690462648869
-0.108209490776062012 0.0082232300192117691 -0.00280441460199654102
-0.101141698658466339 0.076589435338973999 -0.00280120666138827801
-0.125996410846710205 0.367403775453567505 -0.00275068171322345734
-0.107579447329044342 0.228223398327827454 -0.00272712670266628265
-0.0745270177721977234 -0.214585736393928528 -0.00269417464733123779
-0.10295511782169342 0.0898281857371330261 -0.00266783195547759533
-0.112436823546886444 -0.272279143333435059 -0.00264666927978396416
-0.0879440009593963623 -0.246544301509857178 -0.00260208756662905216
-0.104595072567462921 0.0764776766300201416 -0.00254848389886319637
-0.0687009170651435852 0.413761496543884277 -0.00252812192775309086
-0.105025850236415863 0.409938156604766846 -0.00251747574657201767
-0.0916969254612922668 -0.216352969408035278 -0.00250155781395733356
-0.106752432882785797 0.419225186109542847 -0.00249707652255892754
-0.105399101972579956 0.10010334849357605 -0.00249279337003827095
-0.126779854297637939 -0.427860736846923828 -0.00246349070221185684
-0.125733286142349243 0.34685361385345459 -0.00240407558158040047
-0.0874867364764213562 -0.186977282166481018 -0.00238851248286664486
-0.114195235073566437 -0.197277501225471497 -0.00237136567011475563
-0.121339835226535797 -0.372956186532974243 -0.00229510385543107986
-0.107000596821308136 0.405093759298324585 -0.00229308498091995716
-0.110408149659633636 0.258530586957931519 -0.00228021200746297836
-0.108917929232120514 0.0725373402237892151 -0.00226044654846191406
-0.123082943260669708 -0.448892682790756226 -0.00223986990749835968
-0.121247269213199615 -0.273562759160995483 -0.00223279022611677647
-0.118281185626983643 -0.16432778537273407 -0.00222068745642900467
-0.123166583478450775 0.298710256814956665 -0.00219956086948513985
-0.121172510087490082 -0.383823782205581665 -0.00219609425403177738
-0.110372684895992279 -0.293160706758499146 -0.0021685468964278698
-0.123191952705383301 -0.362765491008758545 -0.00210728636011481285
-0.118220813572406769 0.171252086758613586 -0.00209693051874637604
-0.120390094816684723 -0.197980582714080811 -0.00207249540835618973
-0.124347202479839325 -0.355630755424499512 -0.00206873263232409954
-0.124730482697486877 -0.266656309366226196 -0.00205123098567128181
-0.124729394912719727 -0.275281310081481934 -0.00204764376394450665
-0.122933551669120789 -0.35033223032951355 -0.00203925021924078465
-0.112034410238265991 0.316398799419403076 -0.00201531336642801762
-0.115674987435340881 0.414520531892776489 -0.00192728638648986816
-0.122950337827205658 0.447160482406616211 -0.00192309962585568428
-0.0807162299752235413 -0.180636569857597351 -0.00190423405729234219
-0.12327643483877182 -0.201224088668823242 -0.00188392400741577148
-0.0903007760643959045 -0.175110653042793274 -0.0018752997275441885
-0.114265076816082001 0.323938190937042236 -0.00184310111217200756
-0.125332415103912354 -0.418775230646133423 -0.00183379626832902431
-0.114450760185718536 -0.416977882385253906 -0.00182954897172749043
-0.12243141233921051 0.275245964527130127 -0.00182471936568617821
-0.122170723974704742 0.198615685105323792 -0.00172948278486728668
-0.119503572583198547 0.421253114938735962 -0.00169205153360962868
-0.0831024050712585449 -0.153209343552589417 -0.00168399815447628498
-0.123579367995262146 -0.326558977365493774 -0.00168346497230231762
-0.117233142256736755 0.337519079446792603 -0.00162879773415625095
-0.115401998162269592 0.26302337646484375 -0.00154354213736951351
-0.0872042104601860046 -0.238021567463874817 -0.00150358420796692371
-0.110823817551136017 0.0660113543272018433 -0.00150037393905222416
-0.122886098921298981 -0.314737707376480103 -0.00141847389750182629
-0.113239772617816925 0.28651079535484314 -0.00130267767235636711
-0.0999355986714363098 0.340462565422058105 -0.00123041530605405569
-0.0377983003854751587 0.273203879594802856 -0.00121995958033949137
-0.101473122835159302 -0.40036734938621521 -0.00106980977579951286
-0.112331315875053406 -0.128900229930877686 -0.000791950966231524944
-0.141328424215316772 -0.10499928891658783 -0.000790393911302089691
-0.107837207615375519 0.354010671377182007 -0.000650922884233295918
-0.0737076178193092346 0.411073684692382812 -0.00056715670507401228
-0.0342260934412479401 0.358556598424911499 -0.000502773094922304153
-0.14158061146736145 0.117443256080150604 -0.000318823440466076136
-0.141802489757537842 0.136813238263130188 -0.000311264768242835999
-0.109881602227687836 0.365011006593704224 -0.000116762123070657253
-0.037210412323474884 0.35389372706413269 5.72417920920997858e-05
-0.0776828229427337646 0.335089892148971558 0.000144949124660342932
-0.0883337408304214478 0.4059581458568573 0.000219959503738209605
-0.106068715453147888 0.385305017232894897 0.00038280538865365088
-0.099340096116065979 0.299862921237945557 0.000405666331062093377
-0.033528793603181839 0.368665307760238647 0.00105734786484390497
-0.0476821362972259521 0.343599855899810791 0.00122890458442270756
-0.0459637939929962158 -0.345315992832183838 0.00124961603432893753
-0.114413462579250336 -0.0122347678989171982 0.00125263701193034649
-0.142108947038650513 -0.0475440658628940582 0.00130518758669495583
-0.142087489366531372 -0.0487583540380001068 0.00140932155773043633
-0.0518927164375782013 0.403922110795974731 0.0014748831745237112
-0.0519454255700111389 0.297908186912536621 0.00150693987961858511
-0.142055928707122803 0.019404800608754158 0.00156257022172212601
-0.142251342535018921 -0.131013110280036926 0.001605832832865417
-0.0365383513271808624 0.383879035711288452 0.00213851151056587696
-0.14186328649520874 -0.0920072272419929504 0.00249786651693284512
-0.0627472326159477234 0.338628888130187988 0.00291944015771150589
-0.14177173376083374 -0.101721160113811493 0.00294239865615963936
-0.08267231285572052 -0.405285477638244629 0.00297483988106250763
-0.141520053148269653 -0.0444668382406234741 0.00327438395470380783
-0.0374770872294902802 -0.364603519439697266 0.00329737784340977669
-0.14149889349937439 0.0571595951914787292 0.00333752366714179516
-0.0491590686142444611 0.286788821220397949 0.00372745655477046967
-0.0642722845077514648 -0.406017035245895386 0.00374443316832184792
-0.140909761190414429 0.0911494866013526917 0.00388060160912573338
-0.140845209360122681 -0.12535347044467926 0.00393249187618494034
-0.140714734792709351 -0.127578899264335632 0.00402876920998096466
-0.140223920345306396 -0.0588201843202114105 0.00421481113880872726
-0.118666037917137146 0.15194585919380188 0.00422583054751157761
-0.0897132381796836853 0.398276329040527344 0.0042567267082631588
-0.139914870262145996 0.0616320893168449402 0.00480674766004085541
-0.0440430678427219391 0.386013507843017578 0.00483706500381231308
-0.047719266265630722 -0.354897439479827881 0.00491007044911384583
-0.0577608533203601837 -0.34303516149520874 0.00500833149999380112
-0.0479740053415298462 0.390506327152252197 0.00509422924369573593
-0.0488001853227615356 0.350811004638671875 0.00517225218936800957
-0.138488322496414185 -0.0103506017476320267 0.00545474700629711151
-0.0943043753504753113 -0.352729082107543945 0.00550366798415780067
-0.0711880624294281006 -0.404074609279632568 0.00553078716620802879
-0.0906498581171035767 0.39593815803527832 0.00553353922441601753
-0.14579889178276062 0.138382211327552795 0.00583703815937042236
-0.0797095969319343567 -0.343708664178848267 0.00584595231339335442
-0.0592841096222400665 0.375370144844055176 0.00608083885163068771
-0.0572211518883705139 0.386738896369934082 0.00617250707000494003
-0.117228671908378601 0.123127155005931854 0.00621701963245868683
-0.0782743841409683228 0.344686388969421387 0.00649186922237277031
-0.063994191586971283 0.373065441846847534 0.00661957729607820511
-0.117659315466880798 -0.0282918252050876617 0.00663724541664123535
-0.0642504096031188965 0.385229825973510742 0.00669820699840784073
-0.0651275217533111572 -0.392800450325012207 0.0067853596992790699
-0.137383699417114258 0.0606159903109073639 0.00680469628423452377
-0.0680657774209976196 -0.384523391723632812 0.00714173261076211929
-0.135470569133758545 0.126092687249183655 0.00750929117202758789
-0.0760540664196014404 0.361454308032989502 0.00772419385612010956
-0.0810112357139587402 -0.348943859338760376 0.00779006443917751312
-0.0950486063957214355 -0.38048204779624939 0.00783532299101352692
-0.0952143073081970215 0.373560011386871338 0.00837270636111497879
-0.133479535579681396 -0.112188689410686493 0.0089844362810254097
-0.135859042406082153 -0.133657887578010559 0.00941940583288669586
-0.13195115327835083 -0.0528479255735874176 0.0100719854235649109
-0.132961958646774292 0.0327428095042705536 0.0101064788177609444
-0.0680965855717658997 0.27458617091178894 0.0101450337097048759
-0.132019311189651489 -0.013246471993625164 0.0103721991181373596
-0.130768954753875732 0.0687594711780548096 0.0114614395424723625
-0.130128949880599976 -0.0848136767745018005 0.0115607595071196556
-0.121501751244068146 0.00485252030193805695 0.0123760337010025978
-0.129182577133178711 0.0426270142197608948 0.0125513495877385139
-0.121720463037490845 0.114818096160888672 0.0125965913757681847
-0.124521024525165558 0.150462105870246887 0.0126399453729391098
-0.141314297914505005 -0.137816354632377625 0.0127778211608529091
-0.123385705053806305 -0.0359631851315498352 0.0130127156153321266
-0.127896904945373535 0.105395063757896423 0.013241596519947052
-0.12769848108291626 -0.0561394467949867249 0.0132873822003602982
