ply
format ascii 1.0
element vertex 728
property float x
property float y
property float z
end_header
0.0731876865029335022 0.0821015983819961548 0.0138104846701025963
-0.21741504967212677 0.0728519558906555176 0.0138104995712637901
-0.189811497926712036 0.0743334367871284485 0.0138104995712637901
0.0181373097002506256 0.0796522796154022217 0.0138105154037475586
-0.0249244626611471176 -0.0261402260512113571 0.0138105480000376701
-0.190716728568077087 0.064722895622253418 0.0138106001541018486
-0.0799680575728416443 0.0680015087127685547 0.0138106001541018486
-0.0132074179127812386 0.0681873112916946411 0.0138106001541018486
-0.0827255547046661377 0.0642023682594299316 0.0138106066733598709
-0.111643455922603607 0.062428206205368042 0.0138106280937790871
0.0163951590657234192 0.0704056620597839355 0.0138106299564242363
-0.117428459227085114 0.0572942346334457397 0.0138106914237141609
0.0664696693420410156 0.0616541393101215363 0.0138106998056173325
0.122009836137294769 0.0561823844909667969 0.0138107053935527802
0.105771593749523163 0.0554221495985984802 0.0138107147067785263
-0.10339297354221344 0.0544252656400203705 0.0138107277452945709
0.146675318479537964 0.0534125715494155884 0.0138107398524880409
-0.103989914059638977 0.00827324576675891876 0.0138107715174555779
0.145946905016899109 0.0332949198782444 0.0138108888640999794
0.0432301759719848633 0.0400963723659515381 0.0138109046965837479
0.117296509444713593 0.0368998199701309204 0.0138109438121318817
-0.0756361335515975952 0.0253441259264945984 0.0138109996914863586
-0.0501788929104804993 0.024042867124080658 0.0138110024854540825
0.0440531745553016663 0.0307112131267786026 0.0138110201805830002
0.0950694233179092407 0.0299757886677980423 0.0138110294938087463
0.0481035485863685608 0.0273039806634187698 0.0138110630214214325
-0.000238840424572117627 0.0177523549646139145 0.0138110807165503502
0.0649085864424705505 0.0248818639665842056 0.0138110928237438202
0.0820545926690101624 0.0157201774418354034 0.0138111058622598648
0.0925629660487174988 0.0138962864875793457 0.0138111282140016556
0.118494860827922821 0.00367439002729952335 0.0138111542910337448
-0.00848503503948450089 0.0098502282053232193 0.0138111785054206848
0.175804048776626587 -0.00672940583899617195 0.0138111831620335579
0.105651028454303741 0.00557649368420243263 0.013811199925839901
-0.0138597767800092697 0.00741488439962267876 0.0138112083077430725
-0.034312419593334198 0.00310222781263291836 0.0138112613931298256
-0.0207920800894498825 0.00272548012435436249 0.0138112660497426987
0.148795470595359802 -0.0136995688080787659 0.0138112688437104225
0.134098798036575317 -0.0216059796512126923 0.0138113666325807571
0.0475835166871547699 -0.0167438089847564697 0.0138114066794514656
0.150757968425750732 -0.0332248210906982422 0.0138114104047417641
0.0921287909150123596 -0.0179568752646446228 0.0138114215806126595
0.0868029966950416565 -0.0348300375044345856 0.0138115305453538895
-0.0115478681400418282 -0.0270886421203613281 0.0138115352019667625
0.0734083279967308044 -0.0374774932861328125 0.0138115929439663887
0.0684853419661521912 -0.0330710895359516144 0.0138116003945469856
0.105047732591629028 -0.0511717945337295532 0.0138116329908370972
0.0287366583943367004 -0.0350396223366260529 0.0138116329908370972
0.108207292854785919 -0.0536557286977767944 0.0138116637244820595
0.0431767702102661133 -0.0426419749855995178 0.0138117270544171333
0.0282052978873252869 -0.0436675921082496643 0.0138117391616106033
0.160251706838607788 -0.0770997181534767151 0.0138117531314492226
0.0168462768197059631 -0.0460508503019809723 0.013811768963932991
0.0984640717506408691 -0.063221365213394165 0.013811781071126461
0.0413939617574214935 -0.0520997904241085052 0.013811788521707058
0.178259521722793579 -0.0883344933390617371 0.0138117969036102295
0.0656708031892776489 -0.0631726980209350586 0.0138117996975779533
0.0606495626270771027 -0.0595109499990940094 0.0138118350878357887
0.0910524651408195496 -0.0715019553899765015 0.0138118751347064972
0.099100165069103241 -0.0847843959927558899 0.0138119477778673172
0.10069110244512558 -0.0973640531301498413 0.0138120036572217941
0.178167521953582764 -0.117638334631919861 0.0138120539486408234
0.108181633055210114 -0.108047790825366974 0.0138121349737048149
0.172779127955436707 -0.168122082948684692 0.0138124777004122734
-0.167790472507476807 0.199996575713157654 0.0138342361897230148
0.194688856601715088 -0.085468195378780365 0.0138883767649531364
0.275372028350830078 -0.18425498902797699 0.0139257647097110748
0.323330342769622803 0.191883131861686707 0.0140493651852011681
0.195670828223228455 0.0425619855523109436 0.0140863405540585518
0.258274942636489868 0.122821696102619171 0.0141229704022407532
0.275879561901092529 0.163925081491470337 0.01422122772783041
0.19578215479850769 0.16743883490562439 0.014482840895652771
0.109872579574584961 0.179549351334571838 0.0145729416981339455
0.257285773754119873 -0.059923369437456131 0.0145731167867779732
-0.200450345873832703 0.0238000825047492981 0.0146768307313323021
0.0106551330536603928 -0.0820761770009994507 0.0148670300841331482
0.0545249953866004944 -0.114274002611637115 0.0149998199194669724
0.200703516602516174 0.0529446117579936981 0.0151062542572617531
-0.33206602931022644 0.0897321701049804688 0.0152295175939798355
0.296373873949050903 0.158696860074996948 0.0152502693235874176
0.201145067811012268 -0.00322764902375638485 0.0153200393542647362
-0.17989976704120636 0.18116624653339386 0.0153517583385109901
0.19349178671836853 -0.188965514302253723 0.0154190836474299431
0.175288692116737366 -0.189092457294464111 0.0155316991731524467
-0.0637193247675895691 -0.0266029778867959976 0.0155685730278491974
0.29641193151473999 0.0832124054431915283 0.0156502518802881241
-0.0896903052926063538 -0.0316687449812889099 0.0157028194516897202
0.162960231304168701 -0.189416095614433289 0.0157138407230377197
0.0875907465815544128 -0.156465530395507812 0.0158480703830718994
0.3215675950050354 0.191885560750961304 0.015889190137386322
0.296411991119384766 0.0726594850420951843 0.0159545913338661194
0.14578816294670105 -0.20492999255657196 0.015992065891623497
0.202137544751167297 0.0675910711288452148 0.01609782874584198
0.253656446933746338 -0.00509907584637403488 0.0162238962948322296
0.279942601919174194 -0.0111104212701320648 0.016255546361207962
0.201616331934928894 0.165460556745529175 0.0166184846311807632
0.200979858636856079 0.17035694420337677 0.0166720319539308548
-0.141403481364250183 -0.00576390232890844345 0.0166888721287250519
0.319223791360855103 0.19182884693145752 0.01677674800157547
0.203109994530677795 0.07674369215965271 0.0168604273349046707
-0.322204351425170898 0.18468184769153595 0.0170451328158378601
0.32973712682723999 0.200043126940727234 0.0171083100140094757
-0.168125763535499573 0.0228525064885616302 0.0172373168170452118
0.296403765678405762 0.127865597605705261 0.0172463357448577881
0.203672111034393311 -0.17393745481967926 0.017507653683423996
0.250765740871429443 0.00396227417513728142 0.0177789721637964249
0.296097755432128906 -0.0664644911885261536 0.0177994556725025177
0.25048026442527771 -0.113996922969818115 0.0179696902632713318
-0.332761496305465698 0.106349080801010132 0.0179773252457380295
-0.151902258396148682 0.200135782361030579 0.0181526225060224533
0.171976134181022644 0.199218451976776123 0.0181549433618783951
0.25012516975402832 -0.0991720855236053467 0.0182126406580209732
0.205417871475219727 -0.00620093848556280136 0.0187264606356620789
-0.171409904956817627 0.0227865763008594513 0.01882944256067276
-0.0853753089904785156 -0.0205586012452840805 0.0188423153012990952
0.0776259973645210266 -0.141075402498245239 0.018990369513630867
0.172928109765052795 -0.204914957284927368 0.0190430190414190292
-0.00891360640525817871 0.186121717095375061 0.0192763358354568481
-0.133322402834892273 0.200225353240966797 0.0194320343434810638
0.0941211581230163574 -0.145404428243637085 0.019550936296582222
-0.195242598652839661 0.0212186351418495178 0.0199392382055521011
-0.261109322309494019 0.0674387365579605103 0.0199593622237443924
0.248212650418281555 -0.187076136469841003 0.0200448501855134964
0.284144431352615356 -0.0864263623952865601 0.0201818812638521194
0.20494098961353302 -0.185509294271469116 0.0202026907354593277
0.246594950556755066 -0.00989782623946666718 0.0206446666270494461
0.284492701292037964 -0.159177586436271667 0.0206582769751548767
-0.236117050051689148 0.0417185388505458832 0.020844312384724617
0.0108054522424936295 0.200331732630729675 0.0209427941590547562
0.323409140110015869 -0.20488971471786499 0.0210031643509864807
0.00225488701835274696 -0.0661141350865364075 0.0210625045001506805
0.207127094268798828 0.109125837683677673 0.021150810644030571
0.246801748871803284 -0.186454877257347107 0.0212056618183851242
-0.193000391125679016 0.032456662505865097 0.0212960205972194672
-0.155743122100830078 0.200360119342803955 0.0213573556393384933
0.20731140673160553 -0.038814835250377655 0.0214126370847225189
0.245777860283851624 -0.0683709233999252319 0.0216568261384963989
-0.287669360637664795 0.0675430744886398315 0.0219280365854501724
0.102869793772697449 -0.162896186113357544 0.0220905859023332596
0.0521639063954353333 -0.100008673965930939 0.0223155729472637177
0.129088699817657471 0.187636390328407288 0.022447953000664711
-0.367590159177780151 0.124970406293869019 0.0225554108619689941
-0.289962589740753174 0.080457836389541626 0.0225677657872438431
-0.112334027886390686 -0.0202633365988731384 0.0227881763130426407
0.286082535982131958 -0.0990988835692405701 0.0228331275284290314
0.0339550487697124481 0.200427502393722534 0.0229452047497034073
0.286221981048583984 0.12459862232208252 0.0230238772928714752
0.244669944047927856 -0.11302686482667923 0.0230855997651815414
0.163644984364509583 -0.195862650871276855 0.0233025848865509033
0.0820155665278434753 -0.146327480673789978 0.0233577489852905273
-0.224760875105857849 0.0464708693325519562 0.0233997181057929993
-0.358073920011520386 0.124533519148826599 0.0235529597848653793
0.296354532241821289 0.0102185821160674095 0.0236063543707132339
-0.280757904052734375 0.200520187616348267 0.0236439425498247147
0.0848730802536010742 0.200279012322425842 0.0238353908061981201
0.286704182624816895 -0.0618200153112411499 0.0238790996372699738
-0.0525055490434169769 -0.0502324663102626801 0.023936903104186058
-0.343459129333496094 0.0955019295215606689 0.0239992663264274597
0.209277302026748657 -0.131514519453048706 0.0240610353648662567
0.10677868127822876 -0.199653610587120056 0.0240751411765813828
0.286803990602493286 0.144503146409988403 0.024103112518787384
0.251929968595504761 -0.193817108869552612 0.0243259407579898834
0.0126421544700860977 -0.0829317942261695862 0.0244567692279815674
0.286971598863601685 -0.10406949371099472 0.0244792904704809189
0.16353587806224823 0.200016900897026062 0.0246560592204332352
-0.0969363972544670105 -0.0279539283365011215 0.0247889254242181778
0.298202276229858398 -0.188753530383110046 0.0249713137745857239
0.243250846862792969 0.0148543007671833038 0.0249812155961990356
0.204813316464424133 -0.192961513996124268 0.0250398889183998108
0.0152936447411775589 0.200718164443969727 0.0250492505729198456
0.0580473393201828003 0.188842892646789551 0.0251280087977647781
-0.320375949144363403 0.0844753608107566833 0.0253894515335559845
0.0887576863169670105 -0.158184066414833069 0.0254538711160421371
0.242705166339874268 0.0532926619052886963 0.025607764720916748
0.242574438452720642 -0.0568977929651737213 0.0256593748927116394
-0.205312773585319519 0.188823819160461426 0.025662105530500412
-0.367517024278640747 0.184373572468757629 0.0258149188011884689
0.287582814693450928 -0.00441811606287956238 0.0258510764688253403
0.0510999560356140137 -0.109869994223117828 0.0259838458150625229
0.241651445627212524 -0.0131924077868461609 0.0260591916739940643
0.241591483354568481 0.0422107875347137451 0.0260871183127164841
0.241377487778663635 -0.0815151631832122803 0.0261737722903490067
0.136677950620651245 0.188804194331169128 0.0262117870151996613
0.10500500351190567 0.200691372156143188 0.026227286085486412
0.366531461477279663 0.19303034245967865 0.0263675525784492493
-0.367116093635559082 0.131443217396736145 0.0263849813491106033
-0.198992297053337097 0.0321417823433876038 0.026818402111530304
0.303703606128692627 0.186830386519432068 0.0269041545689105988
0.239668801426887512 -0.0349070131778717041 0.0269080940634012222
0.211903735995292664 0.0292276982218027115 0.0270023047924041748
0.212285548448562622 0.0823825299739837646 0.0270819030702114105
0.237935781478881836 0.0448115058243274689 0.0271866247057914734
0.236779645085334778 0.125276580452919006 0.0273377802222967148
0.295208185911178589 -0.09702281653881073 0.0274281725287437439
0.0776213705539703369 -0.139875054359436035 0.0275384765118360519
0.320654839277267456 0.200815707445144653 0.0275445692241191864
-0.183162018656730652 0.016257748007774353 0.0275634210556745529
0.063579857349395752 -0.112712651491165161 0.027576720342040062
0.234417006373405457 0.0753222852945327759 0.0276362653821706772
0.233467116951942444 0.0302342027425765991 0.0277049224823713303
0.217484161257743835 -0.00327612902037799358 0.0277086813002824783
0.23156563937664032 0.13479381799697876 0.0277089998126029968
0.231176510453224182 -0.14015650749206543 0.0277098510414361954
0.231009528040885925 0.0722380355000495911 0.0277107208967208862
0.230281010270118713 0.0878499448299407959 0.0277124699205160141
0.22930106520652771 -0.090824425220489502 0.0277146566659212112
0.227279573678970337 -0.10123433917760849 0.0277198366820812225
0.227040022611618042 -0.0601707175374031067 0.0277204494923353195
0.0113049978390336037 -0.0742204338312149048 0.027725614607334137
0.217735439538955688 0.0527672730386257172 0.0277904421091079712
0.221486881375312805 0.0974758341908454895 0.027807554230093956
0.221276804804801941 -0.0394022390246391296 0.0278114806860685349
0.220616444945335388 0.151832595467567444 0.027823813259601593
0.367128431797027588 0.196435645222663879 0.0278706010431051254
-0.220236152410507202 0.042278878390789032 0.0278958640992641449
-0.0320115871727466583 -0.052724301815032959 0.0279316958039999008
0.104585185647010803 -0.173033624887466431 0.0279448404908180237
0.00254585873335599899 0.201209425926208496 0.0279988124966621399
0.037128843367099762 0.188738316297531128 0.0280568506568670273
0.211924314498901367 -0.185727924108505249 0.0280678756535053253
-0.118217639625072479 -0.00961695797741413116 0.0282729044556617737
-0.0638248324394226074 -0.0369506180286407471 0.0284363720566034317
0.229649007320404053 0.201302006840705872 0.0285150762647390366
0.211855277419090271 0.180310055613517761 0.0285317134112119675
-0.00346373394131660461 0.188715144991874695 0.0287055876106023788
0.123723044991493225 0.201238587498664856 0.0287754572927951813
0.13488711416721344 0.201257258653640747 0.0288493335247039795
0.238364964723587036 0.179246872663497925 0.0289205238223075867
0.294888079166412354 -0.0102504799142479897 0.0289456974714994431
0.076704859733581543 -0.128929927945137024 0.0291208848357200623
0.359991729259490967 -0.198777154088020325 0.029452059417963028
0.116594485938549042 -0.204023063182830811 0.0294664576649665833
0.228976234793663025 -0.204021021723747253 0.0296723451465368271
0.0265355203300714493 -0.0877527147531509399 0.0298843365162611008
0.289444565773010254 -0.0686982348561286926 0.0298970043659210205
0.0637827366590499878 -0.115395553410053253 0.0299277640879154205
-0.0474426224827766418 -0.0507777407765388489 0.0299397651106119156
-0.325670510530471802 0.188671022653579712 0.0299415457993745804
0.289496541023254395 -0.0323134139180183411 0.0299471337348222733
-0.142316058278083801 0.188668474555015564 0.0300127454102039337
0.338807016611099243 -0.203649461269378662 0.0300176143646240234
0.294369399547576904 0.140679001808166504 0.0300192050635814667
0.294218957424163818 -0.0393472984433174133 0.0301650147885084152
0.294141590595245361 0.0325596369802951813 0.0302400141954421997
0.289879411458969116 -0.0334605686366558075 0.0303164832293987274
-0.0243082325905561447 -0.0604476518929004669 0.0304110944271087646
0.293956249952316284 0.16406385600566864 0.0304196570068597794
-0.062154918909072876 -0.0393429584801197052 0.0304854772984981537
0.214194431900978088 0.201632827520370483 0.0305358339101076126
0.29013371467590332 0.0779559463262557983 0.0305618084967136383
-0.247267112135887146 0.0532115213572978973 0.0306102018803358078
-0.0185572095215320587 -0.0654503852128982544 0.0306857693940401077
0.0144596537575125694 -0.0778846219182014465 0.0307251624763011932
0.290319740772247314 0.0443322733044624329 0.0307412650436162949
-0.265908718109130859 0.0629850476980209351 0.0308614969253540039
-0.322961479425430298 0.0880419164896011353 0.0309100113809108734
0.0926611423492431641 -0.156412467360496521 0.0309531949460506439
0.290617972612380981 0.138937294483184814 0.0310289431363344193
0.290631502866744995 -0.0636855661869049072 0.0310419928282499313
0.182502761483192444 -0.200013056397438049 0.0310539901256561279
-0.072394639253616333 -0.0348249524831771851 0.0310586970299482346
0.293275892734527588 0.0275205206125974655 0.031079096719622612
0.259401589632034302 0.201383888721466064 0.0310879815369844437
0.293252289295196533 -0.0452801026403903961 0.031101960688829422
-0.00702007021754980087 0.201745525002479553 0.0311097055673599243
-0.318692386150360107 0.0867403075098991394 0.0311463400721549988
0.222317352890968323 -0.202853471040725708 0.0312192235141992569
0.0971363931894302368 -0.168902173638343811 0.0312770046293735504
0.0524260550737380981 -0.105837039649486542 0.031397014856338501
0.160449311137199402 -0.202524304389953613 0.0314132235944271088
0.292858093976974487 -0.0784095153212547302 0.0314797833561897278
-0.339230626821517944 0.201849877834320068 0.0315229743719100952
-0.207398474216461182 0.0324336998164653778 0.0316158793866634369
0.29130670428276062 -0.105880558490753174 0.0316933505237102509
0.203977286815643311 -0.202316537499427795 0.0317417271435260773
0.279054224491119385 0.201438039541244507 0.031754225492477417
-0.0308598000556230545 -0.0563063137233257294 0.0317625515162944794
0.123036056756973267 -0.200902149081230164 0.0318151339888572693
-0.315163761377334595 0.188603788614273071 0.0318244174122810364
-0.163068979978561401 0.201983258128166199 0.0320477746427059174
0.0563553422689437866 0.201996475458145142 0.0320999249815940857
0.291761159896850586 0.0663847252726554871 0.0321317501366138458
-0.285036414861679077 0.0712661445140838623 0.0321397297084331512
0.29181361198425293 0.0929496735334396362 0.0321823544800281525
0.00696508400142192841 0.202039450407028198 0.0322694592177867889
-0.363821536302566528 0.160942107439041138 0.032292630523443222
-0.366816341876983643 0.197290629148483276 0.0324945561587810516
0.0500765517354011536 0.188564181327819824 0.032933257520198822
-0.133440941572189331 0.202212512493133545 0.032952386885881424
-0.128373906016349792 0.202274501323699951 0.0331969596445560455
-0.0586565360426902771 0.188544318079948425 0.0334895327687263489
0.164948463439941406 0.202335208654403687 0.0339910872280597687
0.0678935423493385315 0.188343405723571777 0.0340857245028018951
-0.272062540054321289 0.202508613467216492 0.0342603027820587158
-0.217251107096672058 0.202598497271537781 0.0344756357371807098
0.360033124685287476 0.202370807528495789 0.0348195023834705353
0.0842760577797889709 0.202781021595001221 0.0351956002414226532
0.115651138126850128 0.202810317277908325 0.0353110581636428833
0.125599950551986694 0.20283450186252594 0.0355137847363948822
0.0822382271289825439 0.202833086252212524 0.0355294086039066315
0.257272392511367798 0.202835634350776672 0.0357440002262592316
0.134184673428535461 0.202818825840950012 0.0359025299549102783
0.292619138956069946 0.182837069034576416 0.0359040126204490662
-0.0442740358412265778 0.202816501259803772 0.0361927077174186707
-0.280147820711135864 0.186899662017822266 0.0364129394292831421
-0.0222370270639657974 0.202808082103729248 0.0365289784967899323
0.00716677960008382797 0.186695322394371033 0.0367423370480537415
0.277519106864929199 0.202514633536338806 0.037010926753282547
-0.34537041187286377 0.202584341168403625 0.0373504236340522766
-0.286478519439697266 0.202579483389854431 0.0373838767409324646
0.058556772768497467 0.20277993381023407 0.037654440850019455
-0.125834718346595764 0.202744439244270325 0.037917163223028183
0.200400367379188538 0.185050725936889648 0.0382996685802936554
0.32912793755531311 0.201828911900520325 0.0383683517575263977
0.189034894108772278 0.201254278421401978 0.0385420434176921844
0.237232357263565063 0.182596310973167419 0.0387561619281768799
0.317614108324050903 0.20090697705745697 0.0390805155038833618
-0.27136695384979248 0.200413182377815247 0.0390845835208892822
-0.0634545460343360901 0.201330110430717468 0.039145149290561676
0.0485441349446773529 0.200823798775672913 0.0391880571842193604
-0.320618957281112671 0.20006754994392395 0.0393287055194377899
0.12673225998878479 0.185090512037277222 0.0393291749060153961
-0.219374179840087891 0.200876295566558838 0.0395395271480083466
-0.0954616144299507141 0.200813010334968567 0.0395941212773323059
0.355785727500915527 0.184999138116836548 0.0396239422261714935
0.220314458012580872 0.199575811624526978 0.0396789908409118652
0.146730557084083557 0.199835747480392456 0.0396950021386146545
0.0165343265980482101 0.199891269207000732 0.0398459918797016144
0.339187920093536377 0.199542909860610962 0.0400809869170188904
0.185477837920188904 0.198632806539535522 0.0403507165610790253
-0.23811747133731842 0.199127033352851868 0.0404247790575027466
0.15995439887046814 0.183915778994560242 0.0405729375779628754
0.334091216325759888 0.198862195014953613 0.0405733212828636169
-0.0425345189869403839 0.1985463947057724 0.0408109985291957855
-0.288885414600372314 0.197929993271827698 0.0408514700829982758
0.0633495226502418518 0.183414041996002197 0.0409304089844226837
-0.314842820167541504 0.197752967476844788 0.0409775786101818085
-0.053105521947145462 0.183346331119537354 0.0409786403179168701
0.114612087607383728 0.198198214173316956 0.0410610176622867584
0.232428371906280518 0.1977347731590271 0.0411989763379096985
-0.233498945832252502 0.198122993111610413 0.0412899293005466461
0.175241082906723022 0.196976318955421448 0.0415306836366653442
-0.188831180334091187 0.197740107774734497 0.0417999774217605591
-0.075679294764995575 0.182090401649475098 0.0418732240796089172
-0.071165919303894043 0.18207143247127533 0.0418867319822311401
-0.0633283182978630066 0.181944072246551514 0.0419774465262889862
0.341177701950073242 0.181858569383621216 0.0420383177697658539
-0.329562187194824219 0.181241795420646667 0.0424776747822761536
0.114429399371147156 0.196100831031799316 0.042565319687128067
0.281552314758300781 0.195574447512626648 0.0429426766932010651
-0.115450143814086914 0.180570095777511597 0.0429561175405979156
-0.311710476875305176 0.195043027400970459 0.0430605448782444
0.103834763169288635 0.180398628115653992 0.043078254908323288
-0.214339748024940491 0.195793181657791138 0.043195672333240509
-0.27522704005241394 0.180189326405525208 0.0432273335754871368
0.0942843928933143616 0.179828256368637085 0.0434846654534339905
-0.10907454788684845 0.179297894239425659 0.0438647381961345673
0.166948750615119934 0.179063767194747925 0.0440325178205966949
0.309800028800964355 0.194268211722373962 0.0440827980637550354
0.107066042721271515 0.193976104259490967 0.0440874472260475159
0.300749003887176514 0.194321617484092712 0.0441619530320167542
-0.213484615087509155 0.194379881024360657 0.0442081466317176819
-0.0484253130853176117 0.178799524903297424 0.044221881777048111
0.366865485906600952 0.187626704573631287 0.0444811955094337463
0.304724842309951782 0.177669122815132141 0.0450320877134799957
0.131195694208145142 0.177538186311721802 0.0451257973909378052
-0.286683320999145508 0.177521497011184692 0.0451377555727958679
-0.292125910520553589 0.192242741584777832 0.0453262776136398315
0.297291845083236694 0.192559465765953064 0.0454037413001060486
0.356388628482818604 0.192409887909889221 0.0455761998891830444
-0.148438155651092529 0.176822245121002197 0.0456388629972934723
0.0439061969518661499 0.190777972340583801 0.0463775396347045898
-0.137445464730262756 0.175415739417076111 0.0466468147933483124
-0.0900281146168708801 0.175137460231781006 0.0468460135161876678
-0.130455628037452698 0.189960718154907227 0.0473728589713573456
-0.162214547395706177 0.189435407519340515 0.0477489419281482697
0.0447777584195137024 0.173782482743263245 0.0478141382336616516
0.120695419609546661 0.188295632600784302 0.0481546968221664429
0.245965674519538879 0.173071965575218201 0.0483208931982517242
-0.02133217453956604 0.188041210174560547 0.0483361817896366119
-0.247051402926445007 0.172382906079292297 0.0488140955567359924
0.278008967638015747 0.172249272465705872 0.0489086620509624481
0.222196608781814575 0.171758204698562622 0.0492597445845603943
-0.0225239526480436325 0.186629161238670349 0.0492894873023033142
0.337755382061004639 0.171670526266098022 0.0493230149149894714
-0.341504037380218506 0.187047705054283142 0.0494596846401691437
-0.198953196406364441 0.18689042329788208 0.0495726987719535828
0.133421152830123901 0.171121552586555481 0.049714948982000351
-0.0818548202514648438 0.170791700482368469 0.0499509535729885101
0.208524197340011597 0.186125472187995911 0.0501222908496856689
0.0277471616864204407 0.184851378202438354 0.0504188016057014465
0.270476251840591431 0.170053467154502869 0.0504791177809238434
-0.322404563426971436 0.169762909412384033 0.0506875477731227875
-0.321504086256027222 0.185193642973899841 0.0507919006049633026
-0.245165079832077026 0.185016021132469177 0.0509195327758789062
-0.105928599834442139 0.16931287944316864 0.0510103516280651093
0.125654444098472595 0.184218794107437134 0.0510253384709358215
0.241986334323883057 0.185605078935623169 0.0510678328573703766
-0.206154540181159973 0.184677273035049438 0.0511629432439804077
-0.19811701774597168 0.184635326266288757 0.0511930808424949646
0.061286192387342453 0.183586478233337402 0.0512223094701766968
-0.358523100614547729 0.168766513466835022 0.0514366477727890015
0.328560024499893188 0.168587148189544678 0.0515307635068893433
-0.23534981906414032 0.183996468782424927 0.051652129739522934
-0.336526215076446533 0.167104169726371765 0.0525951199233531952
-0.231459736824035645 0.182592272758483887 0.0526605322957038879
-0.242875203490257263 0.182482048869132996 0.0527394413948059082
-0.342313975095748901 0.166654720902442932 0.0529174134135246277
-0.066234193742275238 0.166127756237983704 0.0532954968512058258
-0.363671928644180298 0.167224228382110596 0.0533036254346370697
-0.0953547582030296326 0.165725737810134888 0.0535837486386299133
0.323709785938262939 0.181142106652259827 0.0536986552178859711
-0.340660929679870605 0.165527090430259705 0.0537265166640281677
-0.216748207807540894 0.180761635303497314 0.0539711080491542816
-0.131097882986068726 0.180162534117698669 0.0544000118970870972
0.0923004522919654846 0.164462834596633911 0.0544902496039867401
0.270060986280441284 0.179292306303977966 0.0550001300871372223
0.3515968918800354 0.163748651742935181 0.0550027042627334595
-0.241222500801086426 0.163495525717735291 0.0551845058798789978
0.355851173400878906 0.17832532525062561 0.0552515052258968353
-0.218036800622940063 0.163236886262893677 0.0553699731826782227
0.223027840256690979 0.17862895131111145 0.0554978214204311371
0.255187630653381348 0.162876754999160767 0.0556283332407474518
0.247132867574691772 0.180172353982925415 0.0556307807564735413
-0.254607468843460083 0.162857353687286377 0.055642399936914444
-0.035906963050365448 0.162714138627052307 0.0557450838387012482
0.358261644840240479 0.162789925932884216 0.05576319620013237
-0.222545027732849121 0.162254661321640015 0.0560749247670173645
0.0231722593307495117 0.161760985851287842 0.0564292632043361664
0.305224895477294922 0.176718041300773621 0.0568647012114524841
-0.101845882833003998 0.176304623484611511 0.0571603700518608093
-0.329564720392227173 0.176085337996482849 0.0573171749711036682
-0.250202327966690063 0.176018580794334412 0.0573649071156978607
0.13176339864730835 0.175710186362266541 0.0573806576430797577
0.175059914588928223 0.174627587199211121 0.0582631044089794159
0.114258013665676117 0.17412973940372467 0.0583340190351009369
-0.0120067605748772621 0.159069746732711792 0.0583569556474685669
-0.0917024016380310059 0.173885151743888855 0.0588904954493045807
-0.0512740090489387512 0.158156201243400574 0.0590107478201389313
-0.181636929512023926 0.15735943615436554 0.0595811530947685242
0.258962094783782959 0.156890735030174255 0.0599164701998233795
0.228035435080528259 -0.175272569060325623 0.0601070933043956757
0.228214219212532043 -0.175855234265327454 0.0606915317475795746
-0.274202674627304077 0.171324595808982849 0.0607245489954948425
-0.291591048240661621 0.171212553977966309 0.0608048290014266968
0.30045396089553833 0.155365407466888428 0.0610077492892742157
0.0685855373740196228 0.154567033052444458 0.0615787841379642487
-0.19042535126209259 0.154410660266876221 0.061690695583820343
-0.282439231872558594 0.154360443353652954 0.0617265701293945312
0.183363065123558044 0.168999701738357544 0.0623902119696140289
0.0121907414868474007 0.168106600642204285 0.0625270232558250427
-0.242412254214286804 0.152895152568817139 0.0627746656537055969
-0.0462140589952468872 0.152792081236839294 0.0628482848405838013
-0.199689760804176331 0.16821695864200592 0.0629486814141273499
-0.115662716329097748 0.152448207139968872 0.0630943030118942261
0.366203486919403076 0.1652088463306427 0.0631221234798431396
0.301580756902694702 0.152277231216430664 0.063216380774974823
-0.216469466686248779 0.16730673611164093 0.0635979771614074707
0.208916664123535156 0.166088059544563293 0.0642868503928184509
0.0251435060054063797 0.150356069207191467 0.0645886585116386414
0.304515749216079712 0.165513679385185242 0.064876951277256012
-0.288788467645645142 0.149392485618591309 0.0652764961123466492
0.314565688371658325 0.164626866579055786 0.0655095428228378296
-0.00730625679716467857 0.149065464735031128 0.0655098706483840942
0.00662262644618749619 0.164094284176826477 0.0657104551792144775
-0.191021770238876343 0.148016303777694702 0.0662587359547615051
0.138413935899734497 0.147999465465545654 0.0662707015872001648
-0.188373222947120667 0.147425055503845215 0.0666806474328041077
0.0072248261421918869 0.146771535277366638 0.0671470910310745239
-0.132463648915290833 0.161830291152000427 0.0675105452537536621
0.112887375056743622 0.160935968160629272 0.0681507289409637451
-0.0925485938787460327 0.14521460235118866 0.0682625696063041687
-0.296611189842224121 0.160593375563621521 0.0683961063623428345
-0.351262301206588745 0.160551190376281738 0.0684257224202156067
-0.310336172580718994 0.160514608025550842 0.068452492356300354
0.0806616321206092834 0.144837632775306702 0.0685328021645545959
0.140247255563735962 0.144599512219429016 0.0687034651637077332
-0.18068203330039978 0.144491627812385559 0.0687808394432067871
0.296327978372573853 0.144484847784042358 0.0687855035066604614
0.366375088691711426 0.14754001796245575 0.0691085830330848694
-0.315312385559082031 0.143660038709640503 0.069376818835735321
0.0570666901767253876 0.157583117485046387 0.0705512091517448425
-0.215499371290206909 0.142020761966705322 0.0705513060092926025
0.313281387090682983 0.141707584261894226 0.0707752108573913574
-0.140565216541290283 0.156946584582328796 0.0708165690302848816
-0.300295770168304443 0.139881342649459839 0.0720814913511276245
0.0697625428438186646 0.155442014336585999 0.0720840394496917725
-0.230954349040985107 0.139346778392791748 0.0724638551473617554
-0.20515035092830658 0.154766261577606201 0.0725679099559783936
0.22158445417881012 0.153376877307891846 0.0729481726884841919
-0.0107376705855131149 0.154234737157821655 0.0729487240314483643
0.347057759761810303 0.138613253831863403 0.0729883983731269836
-0.300756722688674927 0.138004347681999207 0.0734240114688873291
-0.365274578332901001 0.150730401277542114 0.0736608728766441345
0.172071933746337891 0.137062922120094299 0.0740975812077522278
-0.322086632251739502 0.152439698576927185 0.0742372199892997742
-0.289801925420761108 0.15238422155380249 0.0742770358920097351
-0.0674369484186172485 0.151692032814025879 0.0747738182544708252
-0.277264207601547241 0.135844036936759949 0.0749704912304878235
0.322608649730682373 0.135830491781234741 0.0749800577759742737
0.242896601557731628 0.152395620942115784 0.0750312060117721558
-0.352580815553665161 0.151305004954338074 0.0750517100095748901
-0.334659963846206665 0.150218397378921509 0.0758315697312355042
0.0271839089691638947 0.150110006332397461 0.0759092643857002258
0.311045289039611816 0.150055646896362305 0.0759482830762863159
-0.125845089554786682 0.13420519232749939 0.0761437639594078064
0.0357133671641349792 0.13414938747882843 0.0761838778853416443
0.192256659269332886 0.133551463484764099 0.0766121372580528259
0.0288986153900623322 0.133226931095123291 0.0768444240093231201
-0.153385132551193237 0.132790729403495789 0.0771569088101387024
-0.267925292253494263 0.13234296441078186 0.0774777978658676147
0.0518104471266269684 0.132119476795196533 0.0776378586888313293
-0.116675823926925659 0.146950498223304749 0.0778910964727401733
0.306498080492019653 0.131697580218315125 0.0779401883482933044
-0.30483594536781311 0.146702408790588379 0.0780831277370452881
-0.126529991626739502 0.14563433825969696 0.0783435851335525513
0.319370776414871216 0.146689191460609436 0.0783622413873672485
-0.253445655107498169 0.1459149569272995 0.0785771012306213379
0.226962491869926453 -0.172703161835670471 0.0787522792816162109
0.0513875074684619904 0.145480647683143616 0.0792288333177566528
0.252579838037490845 0.129978254437446594 0.0792561620473861694
-0.13998115062713623 0.12973099946975708 0.0793495774269104004
-0.215424686670303345 0.144352883100509644 0.0795612633228302002
-0.227758780121803284 0.129263401031494141 0.0796847417950630188
0.0898018479347229004 0.144665122032165527 0.0798122435808181763
-0.221579283475875854 0.128587767481803894 0.0801689326763153076
0.188453733921051025 0.143439263105392456 0.0802021175622940063
-0.15865674614906311 0.14232286810874939 0.0802561193704605103
0.137649059295654297 0.128310367465019226 0.0803674608469009399
-0.23908531665802002 0.127700895071029663 0.0808042287826538086
0.120409667491912842 0.127460896968841553 0.0809758901596069336
-0.223745673894882202 0.141715958714485168 0.0812307223677635193
-0.248214304447174072 0.141645178198814392 0.0812755376100540161
0.0548775456845760345 0.142350420355796814 0.0814673006534576416
-0.127422168850898743 0.126526474952697754 0.0816449448466300964
0.154162481427192688 0.142010286450386047 0.0817103907465934753
0.277950406074523926 0.141724035143852234 0.0819151178002357483
-0.142331913113594055 0.139798328280448914 0.0820624753832817078
-0.341222882270812988 0.125770732760429382 0.0821867659687995911
0.178794592618942261 0.140799000859260559 0.0822944045066833496
0.0721755251288414001 0.125075221061706543 0.0826841890811920166
0.346275538206100464 0.125054076313972473 0.0827006101608276367
-0.253494918346405029 0.139338076114654541 0.0827315673232078552
-0.117374427616596222 0.124960184097290039 0.0827663838863372803
0.307105123996734619 0.124849818646907806 0.0828454717993736267
0.262025237083435059 0.140205249190330505 0.0833458453416824341
-0.203577890992164612 0.137774407863616943 0.0837122425436973572
0.274377286434173584 0.123165331780910492 0.084051668643951416
0.20849984884262085 0.137005209922790527 0.0840644538402557373
0.199267938733100891 0.1231088787317276 0.0840922445058822632
0.0185866039246320724 0.122804522514343262 0.0843104198575019836
-0.295230954885482788 0.122409455478191376 0.0845937207341194153
0.196669116616249084 0.135497182607650757 0.0851492434740066528
0.0950135663151741028 0.121622182428836823 0.0851579234004020691
0.300649195909500122 0.121197827160358429 0.0854621380567550659
-0.283683657646179199 0.135006889700889587 0.0854948759078979492
-0.203459948301315308 0.120845519006252289 0.0857148021459579468
-0.0866506472229957581 0.136330664157867432 0.0857795178890228271
-0.22689482569694519 0.134533151984214783 0.0858323350548744202
-0.156697466969490051 0.120519697666168213 0.0859483703970909119
-0.225894704461097717 0.12032327800989151 0.0860891863703727722
-0.253431469202041626 0.119395896792411804 0.0867539644241333008
0.107541695237159729 0.118975892663002014 0.0870550051331520081
0.258470773696899414 0.134738057851791382 0.0876786112785339355
0.0979483500123023987 0.133388236165046692 0.087878301739692688
0.0151113066822290421 0.13332858681678772 0.0879208371043205261
0.187409073114395142 0.131630450487136841 0.0880315676331520081
0.329974204301834106 0.132926240563392639 0.0882077217102050781
-0.0596348494291305542 0.132906287908554077 0.0882219448685646057
0.301020622253417969 0.117334790527820587 0.0882284566760063171
0.316144943237304688 0.132300704717636108 0.08865375816822052
0.232072591781616211 0.116134017705917358 0.089087948203086853
0.340406596660614014 0.131681486964225769 0.0890953317284584045
-0.224039927124977112 0.129909679293632507 0.0891325324773788452
-0.072390437126159668 0.11512349545955658 0.089808538556098938
0.196195647120475769 0.128891974687576294 0.0898609161376953125
-0.199502825736999512 0.127634495496749878 0.090761430561542511
-0.200233310461044312 0.113789387047290802 0.0907614603638648987
0.0758934468030929565 0.113475307822227478 0.090986207127571106
-0.177608639001846313 0.113301500678062439 0.091110914945602417
0.163929358124732971 0.113296270370483398 0.091114923357963562
-0.0129233254119753838 0.113078631460666656 0.0912709832191467285
-0.150768190622329712 0.126864418387413025 0.091312900185585022
0.334445327520370483 0.128471136093139648 0.0913928523659706116
0.181307390332221985 0.112673819065093994 0.0915611386299133301
0.0170126054435968399 0.112433008849620819 0.091733202338218689
0.330103904008865356 0.112360335886478424 0.0917857810854911804
0.151540219783782959 0.127461344003677368 0.0921158716082572937
-0.351263523101806641 0.121137991547584534 0.0926394239068031311
-0.329057008028030396 0.111531399190425873 0.0926403328776359558
-0.0833404660224914551 0.110727258026599884 0.0929554998874664307
0.346840620040893555 0.109644390642642975 0.0937316045165061951
0.224100828170776367 -0.16249336302280426 0.0938274934887886047
-0.341282695531845093 0.115671545267105103 0.0940852388739585876
0.238156110048294067 0.108998507261276245 0.0941947251558303833
-0.112682521343231201 0.124220333993434906 0.0944364070892333984
-0.188270345330238342 0.12206730991601944 0.0947469770908355713
0.195228859782218933 0.107803009450435638 0.0950524136424064636
0.327177762985229492 0.123321972787380219 0.0950795412063598633
0.0954997912049293518 0.122959651052951813 0.0953389331698417664
0.0386030189692974091 0.122779227793216705 0.0954681038856506348
0.266824990510940552 0.122415803372859955 0.0957569107413291931
-0.308893680572509766 0.106867052614688873 0.0957985818386077881
-0.195648223161697388 0.106713205575942993 0.0958341509103775024
-0.0445858389139175415 0.122036658227443695 0.0959997102618217468
0.274722009897232056 0.106196761131286621 0.0962044969201087952
-0.239305749535560608 0.106106020510196686 0.096269659698009491
-0.177905768156051636 0.105953246355056763 0.0963792651891708374
-0.0181605052202939987 0.105886287987232208 0.0964272916316986084
0.125699013471603394 0.120900608599185944 0.0968144312500953674
0.3090190589427948 0.105267710983753204 0.096870914101600647
-0.170422926545143127 0.119105406105518341 0.0968719795346260071
9.11452007130719721e-05 0.104853689670562744 0.0971680134534835815
0.0301780421286821365 0.120096392929553986 0.0973919332027435303
-0.279576361179351807 0.104361988604068756 0.0975207090377807617
-0.0288470219820737839 0.104330480098724365 0.0975429192185401917
0.265648096799850464 0.119572535157203674 0.0977789238095283508
0.0856598168611526489 0.119470648467540741 0.0978412702679634094
0.139105260372161865 0.119023822247982025 0.0981620326638221741
0.236416637897491455 0.102944426238536835 0.0985353812575340271
0.199674084782600403 0.116709120571613312 0.098592706024646759
0.353501230478286743 0.102553144097328186 0.0988160595297813416
0.223634734749794006 -0.161189362406730652 0.099094294011592865
0.0894135162234306335 0.102005541324615479 0.0992071181535720825
0.312011361122131348 0.101091906428337097 0.09986114501953125
-0.185746222734451294 0.114790789783000946 0.0999693572521209717
-0.262044012546539307 0.115445926785469055 0.0999951735138893127
0.177197083830833435 0.11446806788444519 0.100319661200046539
-0.206241890788078308 0.114253975450992584 0.100354276597499847
0.027235059067606926 0.100397437810897827 0.100358583033084869
-0.286101698875427246 0.100320093333721161 0.100417688488960266
0.219916746020317078 0.114802524447441101 0.100427858531475067
0.160062983632087708 0.100278601050376892 0.100444138050079346
0.35689854621887207 0.100174739956855774 0.100558586418628693
0.325141102075576782 0.114340685307979584 0.101522013545036316
0.216557607054710388 0.112306565046310425 0.102016016840934753
0.283982992172241211 0.113397777080535889 0.102197960019111633
-0.15796363353729248 0.11157197505235672 0.102275781333446503
0.350472331047058105 0.0976229831576347351 0.102345690131187439
0.129987403750419617 0.112276762723922729 0.10300099104642868
-0.11215827614068985 0.112102501094341278 0.103125318884849548
-0.0456675738096237183 0.112078562378883362 0.103142395615577698
-0.00803686585277318954 0.111527964472770691 0.103535018861293793
-0.111856482923030853 0.0958977490663528442 0.103580854833126068
0.202828675508499146 0.109632574021816254 0.103658676147460938
0.166134670376777649 0.109555274248123169 0.103812061250209808
0.367217361927032471 0.103080563247203827 0.103911198675632477
-0.187764540314674377 0.108420424163341522 0.104523517191410065
-0.271816372871398926 0.093932032585144043 0.104988761246204376
-0.293067395687103271 0.0955500826239585876 0.105017296969890594
0.219935342669487 0.108029201626777649 0.105243317782878876
-0.08495359867811203 0.108440548181533813 0.105737477540969849
0.153193667531013489 0.106900691986083984 0.106233194470405579
-0.0385097675025463104 0.107484310865402222 0.10641971230506897
-0.0739733055233955383 0.0913261100649833679 0.106845445930957794
0.180743500590324402 0.104994162917137146 0.106972277164459229
-0.0891585350036621094 0.0909561142325401306 0.10710945725440979
-0.224595814943313599 0.104992002248764038 0.10715252161026001
0.358279705047607422 0.0907170325517654419 0.107376843690872192
0.315599381923675537 0.0901583209633827209 0.107678711414337158
0.0582621842622756958 0.105478793382644653 0.107855424284934998
-0.186051607131958008 0.103666462004184723 0.107922747731208801
-0.278392404317855835 0.104854658246040344 0.108222000300884247
-0.123912565410137177 0.104750931262969971 0.108377046883106232
0.364502310752868652 0.1032109335064888 0.108468808233737946
-0.269798845052719116 0.0892302840948104858 0.108511306345462799
0.00635916925966739655 0.104079887270927429 0.108857370913028717
-0.272260457277297974 0.0886018499732017517 0.10913790762424469
-0.166025891900062561 0.0880661085247993469 0.109177879989147186
0.348068177700042725 0.0879610106348991394 0.109253205358982086
0.321672767400741577 0.0878626257181167603 0.109323702752590179
-0.15945550799369812 0.0876301825046539307 0.109490320086479187
-0.204947590827941895 0.101558871567249298 0.109509162604808807
0.106818258762359619 0.102736689150333405 0.109818421304225922
0.21305905282497406 0.0871342122554779053 0.10984579473733902
0.304700642824172974 0.0869717597961425781 0.109962210059165955
-0.0929595082998275757 0.102457977831363678 0.110018923878669739
-0.275869101285934448 0.10218241810798645 0.110185727477073669
0.346108198165893555 0.086350858211517334 0.110407203435897827
-0.054904840886592865 0.0862958580255508423 0.110446654260158539
-0.209838822484016418 0.085994914174079895 0.110662356019020081
-0.0731335654854774475 0.10155823826789856 0.11066291481256485
0.0871456041932106018 0.0856682956218719482 0.110896393656730652
0.338272273540496826 0.0854549407958984375 0.111048988997936249
-0.0495951734483242035 0.0854068323969841003 0.111083433032035828
0.0843024849891662598 0.100558921694755554 0.111377604305744171
0.109555870294570923 0.100333452224731445 0.111538998782634735
-0.194823369383811951 0.0841405987739562988 0.111989028751850128
-0.133346781134605408 0.0996858999133110046 0.112002924084663391
-0.278000205755233765 0.0892552733421325684 0.112100020051002502
0.248776793479919434 0.0833980217576026917 0.112519837915897369
-0.186703160405158997 0.0825491249561309814 0.11312701553106308
-0.102383643388748169 0.081965327262878418 0.113544680178165436
0.283557027578353882 0.0817639082670211792 0.113688580691814423
-0.2282523512840271 0.0815853327512741089 0.113816522061824799
0.139300346374511719 0.0815741494297981262 0.113824509084224701
0.230459064245223999 0.0815507322549819946 0.113840974867343903
0.227109059691429138 -0.159057334065437317 0.114294558763504028
0.272365748882293701 0.0808748379349708557 0.114324666559696198
-0.00575832976028323174 0.0806917697191238403 0.114455543458461761
-0.127389281988143921 0.0797169357538223267 0.115153297781944275
-0.0367566049098968506 0.0795883536338806152 0.115245446562767029
0.108913816511631012 0.0951296091079711914 0.11526942253112793
0.356810122728347778 0.0788977444171905518 0.115771912038326263
-0.0144389970228075981 0.0787757858633995056 0.115826971828937531
0.361730664968490601 0.0939013734459877014 0.115841135382652283
0.0596276000142097473 0.0938165634870529175 0.11621180921792984
0.338068991899490356 0.0937914103269577026 0.116229921579360962
-0.237374857068061829 0.0937124937772750854 0.116251826286315918
-0.0333133488893508911 0.0935451537370681763 0.116406664252281189
0.222862064838409424 0.077745392918586731 0.116564609110355377
-0.225927978754043579 0.0927523449063301086 0.116901032626628876
0.248715296387672424 0.0769755169749259949 0.117115437984466553
0.236340358853340149 0.0928627252578735352 0.117162667214870453
-0.198742568492889404 0.0768553614616394043 0.117201663553714752
-0.159205272793769836 0.0767078697681427002 0.117307201027870178
0.296281188726425171 0.0919488519430160522 0.117505721747875214
-4.46025478595402092e-05 0.0912348851561546326 0.11806313693523407
-0.259585410356521606 0.0849121809005737305 0.118427500128746033
0.0599477440118789673 0.0742924287915229797 0.119038201868534088
0.254018068313598633 0.0911001414060592651 0.119093917310237885
0.0607476383447647095 0.0897040888667106628 0.119160458445549011
-0.242740362882614136 0.0887297689914703369 0.119524531066417694
0.0737517848610877991 0.0890848711133003235 0.119604341685771942
0.20097726583480835 0.0728159770369529724 0.120096608996391296
-0.127023637294769287 0.0727134644985198975 0.120170034468173981
-0.167135417461395264 0.0724982991814613342 0.120324268937110901
0.34132036566734314 0.0880361124873161316 0.120354756712913513
